1.5172083674362978E-20 3.884025228370631E-20 9.553160535512403E-20 2.257565347818446E-19 5.125801755440572E-19 1.1181794367935615E-18 2.3436319931529198E-18 4.719495271526134E-18 9.131243273595368E-18 1.6974324178207297E-17 3.031679531828834E-17 5.20238288056369E-17 8.577279313511499E-17 1.3587045022564809E-16 2.0678960178803331E-16 3.0238524794987967E-16 4.248354255291568E-16 5.734678409208379E-16 7.437476966254885E-16 9.26766698192983E-16 1.1095411826397091E-15 1.2762761511435286E-15 4.972618591326426E-15 2.5127090851796774E-14 1.2199091575042234E-13 5.690376387583517E-13 2.5502497662342845E-12 1.0981272280576583E-11 4.543084601193948E-11 1.8058314375132197E-10 6.896548823221214E-10 2.5305483615119127E-9 8.921249568491277E-9 3.021794710696835E-8 9.834050752920302E-8 3.0748798795866094E-7 9.237449661970604E-7 2.6662706719135024E-6 7.394087866662117E-6 1.9701223569702454E-5 5.043476625678885E-5 1.240495079956712E-4 2.9314892136891326E-4 6.655945783409189E-4 0.0014519761127166808 0.003043248300840364 0.006128349505322217 0.011857083645433888 0.022041465283014688 0.03936690406550784 0.06755387751938452 0.11137751478448037 0.17643022368343347 0.26852001769538214 0.3926526838305625 0.5516564420760778 0.744658307092434 0.9657697627537771 1.2034232284723767 1.4407591843112353 1.6572675401761259 1.831563888873417 1.9448214745385404 1.9841094744370291 1.9448214745385404 1.831563888873417 1.6572675401761259 1.4407591843112353 1.2034232284723767 0.9721629195439717 0.7792947799905896 0.621478130888278 0.49307309251521825 0.3891868200729524 0.3056091225946781 0.238745872624403 0.18555249540407268 0.14346933819573454 0.11036027125298405 0.08445547175935399 0.06429899631233378 0.04870145810159667 0.03669789070399407 0.02751069806327249 0.02034683690106439 0.01448227466826878 0.009903868763242701 0.006507305474754297 0.004107955522530075 0.0024916009731503217 0.0014519761127166808
8.644057113036116E-20 2.212862558834922E-19 5.442763634273172E-19 1.2862125085645654E-18 2.9203452917279944E-18 6.37065225958279E-18 1.3352476321353461E-17 2.6888585343561034E-17 5.20238288056369E-17 9.670855421101029E-17 1.7272519440314215E-16 2.963976188680096E-16 4.886770588125571E-16 7.741006159285796E-16 1.178151377624014E-15 1.7227926035202897E-15 2.4204333173566024E-15 3.2672432315842268E-15 4.237386047496679E-15 5.280108152301277E-15 6.321437159096106E-15 7.271383535230669E-15 8.533047625744023E-15 4.311826032842561E-14 2.093372485519395E-13 9.764724929507923E-13 4.376246099143328E-12 1.884393858898977E-11 7.795964351135141E-11 3.0988191387218185E-10 1.1834525106040504E-9 4.342438353445089E-9 1.530892547879489E-8 5.185420459669655E-8 1.6875298575085278E-7 5.276514973764787E-7 1.5851527009028743E-6 4.5753387694458E-6 1.2688305518789939E-5 3.3807434839047335E-5 8.654640498933893E-5 2.1286980697122744E-4 5.030455607111461E-4 0.0011421648638660512 0.0024916009731503217 0.005222234967574471 0.010516289805000117 0.02034683690106439 0.03782330567826259 0.06755387751938452 0.11592291739045918 0.19112457966326402 0.30275547453758134 0.4607821929992749 0.6737946999085469 0.9466462401710334 1.2778387649535765 1.6572675401761259 2.065082518171257 2.4723526470339383 2.843882471418451 3.1429762018367717 3.337326996032607 3.404745473459935 3.337326996032607 3.1429762018367717 2.843882471418451 2.4723526470339383 2.065082518171257 1.68639458166547 1.3700687316066753 1.1073550230791278 0.8904156280878688 0.7122952306654374 0.5668767793929134 0.44882668238754553 0.35353306299606385 0.27704018791023505 0.2159816620594768 0.16751447992917712 0.12925554894609487 0.09922187009515344 0.07577518207626119 0.05756561714872758 0.042645658068565434 0.030353913807886636 0.020757870271771763 0.013638892648201145 0.008610009871634024 0.005222234967574471 0.003043248300840364
4.731711388784547E-19 1.2113093232185316E-18 2.9793401799617364E-18 7.040659606463872E-18 1.598581649259708E-17 3.4872615319944546E-17 7.309075293237218E-17 1.471867016086195E-16 2.847757019982772E-16 5.293775380810735E-16 9.454886273886627E-16 1.622464972716687E-15 2.6749925114839042E-15 4.237386047496679E-15 6.449138660604797E-15 9.430476078526826E-15 1.3249324644393918E-14 1.7884717565668876E-14 2.3195228302435572E-14 2.8903034248326974E-14 3.460321444900138E-14 3.980317093692414E-14 4.3989306966682134E-14 7.108999295906079E-14 3.4513877443742225E-13 1.609930969381558E-12 7.215210029476144E-12 3.10684023754345E-11 1.285337225133652E-10 5.109089028063332E-10 1.95118332709636E-9 7.159470480028959E-9 2.5240151068452096E-8 8.549313009381088E-8 2.7822663710158763E-7 8.699502472413703E-7 2.613474975286327E-6 7.543458349844266E-6 2.0919479197970832E-5 5.5739036926945906E-5 1.426908988085513E-4 3.509629786432931E-4 8.29381916075739E-4 0.0018831115057022748 0.004107955522530075 0.008610009871634024 0.017338430690350532 0.033546262790251205 0.06236008859994447 0.11137751478448037 0.19112457966326402 0.3151111598444445 0.4991593906910219 0.7597014027577577 1.110899653824231 1.5607557919982848 2.1067999523041445 2.7323722447292553 3.404745473459935 4.07622039783662 4.688769521998851 5.1818917172725865 5.502322005640725 5.613476283413374 5.502322005640725 5.1818917172725865 4.688769521998851 4.07622039783662 3.4135319085214513 2.8251804759327697 2.3262146923575697 1.9055254834171271 1.552891441996853 1.2590089012888008 1.015495196205671 0.814869972651552 0.6505192081450749 0.5166462760005237 0.4082139582196171 0.3208808257553674 0.2509348907820674 0.19522692079377663 0.15110531006208772 0.11592291739045918 0.08587780939743375 0.06112527611295737 0.04180121746110127 0.027465356997214266 0.017338430690350532 0.010516289805000117 0.006128349505322217
2.4885541019827196E-18 6.37065225958279E-18 1.566927611776908E-17 3.702901742033507E-17 8.407437803685481E-17 1.8340592392640877E-16 3.844069895260153E-16 7.741006159285796E-16 1.4977239377545125E-15 2.7841610268364016E-15 4.972618591326426E-15 8.533047625744023E-15 1.4068617124461595E-14 2.2285730391707504E-14 3.391802489506043E-14 4.959780510809338E-14 6.968231678385824E-14 9.406128904299193E-14 1.2199091575042234E-13 1.5201004145964672E-13 1.8198906100435522E-13 2.093372485519395E-13 2.313534391695757E-13 2.456595368792165E-13 5.467253537991956E-13 2.5502497662342845E-12 1.1429426503964358E-11 4.921464795826677E-11 2.0360692602792226E-10 8.093175016375902E-10 3.0908187484083245E-9 1.1341130933749797E-8 3.9982266684865815E-8 1.354274432773538E-7 4.407315777651242E-7 1.378065554894573E-6 4.1399377187851705E-6 1.1949396128877693E-5 3.313800277713885E-5 8.8294758344622E-5 2.260329406981056E-4 5.55951324165014E-4 0.0013138023168804537 0.002982987947026769 0.006507305474754297 0.013638892648201145 0.027465356997214266 0.053139762179825314 0.09878299405312299 0.17643022368343347 0.30275547453758134 0.4991593906910219 0.7907054051593443 1.2034232284723767 1.7597472415623396 2.4723526470339383 3.337326996032607 4.32827979019659 5.393368730035602 6.457034689316848 7.4273578214333895 8.208499862389877 8.716085146198127 8.892161745938635 8.716085146198127 8.208499862389877 7.4273578214333895 6.457034689316848 5.449258063872163 4.570882385627375 3.814381137693433 3.166718756372759 2.6155093163056424 2.1491385624114105 1.756846958343717 1.4287781957983385 1.155997954079366 0.9304878049865182 0.7451190629653888 0.5936111254677807 0.47047847427656303 0.3709700535883621 0.2910042395903158 0.2242867719485806 0.1661557273173933 0.11826471566155732 0.08087667511241124 0.053139762179825314 0.033546262790251205 0.02034683690106439 0.011857083645433888
1.2574888634974139E-17 3.2191481243093884E-17 7.917826741826476E-17 1.8711096935856672E-16 4.248354255291568E-16 9.26766698192983E-16 1.942443236393371E-15 3.911600326394876E-15 7.568134326753266E-15 1.4068617124461595E-14 2.5127090851796774E-14 4.311826032842561E-14 7.108999295906079E-14 1.1261180843988918E-13 1.713908431542004E-13 2.506221887145279E-13 3.521110401762515E-13 4.753001888266596E-13 6.16431115087216E-13 7.681204685202163E-13 9.19607161881656E-13 1.0578000235539185E-12 1.1690498231715276E-12 1.2413398269759298E-12 1.2664165549094197E-12 3.881382101433995E-12 1.7395147741802464E-11 7.490280216578644E-11 3.0988191387218185E-10 1.231750123781735E-9 4.704107310462815E-9 1.7260765278404357E-8 6.085147280085755E-8 2.06115362243856E-7 6.707765177056668E-7 2.0973627956717965E-6 6.300826050646546E-6 1.818652152100997E-5 5.043476625678885E-5 1.3438122776315224E-4 3.4401344604594253E-4 8.461365421744255E-4 0.0019995566179747334 0.004539992976248479 0.009903868763242701 0.020757870271771763 0.04180121746110127 0.08087667511241124 0.1503439192977573 0.26852001769538214 0.4607821929992749 0.7597014027577577 1.2034232284723767 1.831563888873417 2.6782676492638178 3.7628256807176226 5.079283386489853 6.587475442640296 8.208499862389877 9.827358560436156 11.304153064044986 12.493021219858248 13.265546508012175 13.53352832366127 13.265546508012175 12.493021219858248 11.304153064044986 9.831411915115936 8.401128669811175 7.142014848832483 6.040393477221766 5.082426183163758 4.254399785731871 3.5429651885582545 2.935329376091966 2.419402724024307 1.983904937611848 1.6184337260441688 1.3135008262449672 1.0605402344238672 0.8518935242178765 0.6807769662443859 0.5407329126440966 0.41693296979041133 0.308871540823677 0.2198455963042534 0.1503439192977573 0.09878299405312299 0.06236008859994447 0.03782330567826259 0.022041465283014688
6.105052865403157E-17 1.5628821893349812E-16 3.844069895260153E-16 9.084154880336477E-16 2.0625572179923185E-15 4.4994113670533434E-15 9.430476078526826E-15 1.8990646735868877E-14 3.674295772989646E-14 6.830251446447869E-14 1.2199091575042234E-13 2.093372485519395E-13 3.4513877443742225E-13 5.467253537991956E-13 8.32094969964373E-13 1.2167596515246312E-12 1.7094835407045465E-12 2.3075614138262196E-12 2.9927458244202346E-12 3.729190932372597E-12 4.464652134632917E-12 5.135572371480255E-12 5.6756852326327514E-12 6.0266500066972274E-12 6.148396412704767E-12 6.0266500066972274E-12 2.5436656473769176E-11 1.0952921331247064E-10 4.5313554719967633E-10 1.8011692240397211E-9 6.87874362713457E-9 2.5240151068452096E-8 8.898217092106947E-8 3.0139931785484317E-7 9.808661647953488E-7 3.066941294563569E-6 9.213600834566143E-6 2.659387015558673E-5 7.374998146901935E-5 1.965035984673079E-4 5.030455607111461E-4 0.0012372924261788228 0.0029239208281656767 0.006638761765307788 0.01448227466826878 0.030353913807886636 0.06112527611295737 0.11826471566155732 0.2198455963042534 0.3926526838305625 0.6737946999085469 1.110899653824231 1.7597472415623396 2.6782676492638178 3.9163895098987074 5.502322005640725 7.4273578214333895 9.6327638230493 12.003162851145674 14.370394977770298 16.529888822158657 18.26835240527347 19.398004229089185 19.789869908361467 19.398004229089185 18.26835240527347 16.529888822158657 14.443171356535444 12.508486067754509 10.777258582242624 9.23789934216028 7.877701435924121 6.683241843098414 5.640741603300581 4.736380700615703 3.9565655814617475 3.288149107504275 2.718604343449053 2.2361548697419216 1.8298652878308275 1.4896962615136817 1.2065288350825967 0.9657697627537771 0.744658307092434 0.5516564420760778 0.3926526838305625 0.26852001769538214 0.17643022368343347 0.11137751478448037 0.06755387751938452 0.03936690406550784
2.847757019982772E-16 7.290205055072569E-16 1.793101103442871E-15 4.237386047496679E-15 9.620984332403295E-15 2.0987910487930685E-14 4.3989306966682134E-14 8.858358600390629E-14 1.713908431542004E-13 3.18603244455035E-13 5.690376387583517E-13 9.764724929507923E-13 1.609930969381558E-12 2.5502497662342845E-12 3.881382101433995E-12 5.6756852326327514E-12 7.974040292384725E-12 1.0763828520641494E-11 1.39599330561311E-11 1.7395147741802464E-11 2.0825772910555125E-11 2.3955340919962107E-11 2.6474746117329783E-11 2.8111852987890587E-11 2.8679750088881025E-11 2.8111852987890587E-11 3.5737169224815966E-11 1.538828043396815E-10 6.366316952369053E-10 2.5305483615119127E-9 9.664274285047388E-9 3.5461089429082884E-8 1.250152866386744E-7 4.234502454176725E-7 1.378065554894573E-6 4.308891782197059E-6 1.2944626292938417E-5 3.736299379885256E-5 1.0361485876900842E-4 2.760772572037196E-4 7.067526484648328E-4 0.00173833101298252 0.004107955522530075 0.009327112346494885 0.02034683690106439 0.042645658068565434 0.08587780939743375 0.1661557273173933 0.308871540823677 0.5516564420760778 0.9466462401710334 1.5607557919982848 2.4723526470339383 3.7628256807176226 5.502322005640725 7.730474044329972 10.435048475476501 13.53352832366127 16.863814726859555 20.189651799465537 23.22362747297589 25.66607769535559 27.253179303401264 27.803730045319412 27.253179303401264 25.66607769535559 23.22362747297589 20.491610260945894 17.986170835193484 15.70589571905327 13.644199904191836 11.792199189531138 10.139181747459372 8.673060543627495 7.380796253306535 6.248782725338131 5.263189418387667 4.410257477107366 3.676548151602331 3.0491440370384195 2.5158050868969615 2.0650825181712533 1.6572675401761259 1.2778387649535765 0.9466462401710334 0.6737946999085469 0.4607821929992749 0.30275547453758134 0.19112457966326402 0.11592291739045918 0.06755387751938452
1.2762761511435286E-15 3.2672432315842268E-15 8.036121617311039E-15 1.8990646735868877E-14 4.311826032842561E-14 9.406128904299193E-14 1.971463962443268E-13 3.9700408920505876E-13 7.681204685202163E-13 1.4278806784483614E-12 2.5502497662342845E-12 4.376246099143328E-12 7.215210029476144E-12 1.1429426503964358E-11 1.7395147741802464E-11 2.5436656473769176E-11 3.5737169224815966E-11 4.8240132635951775E-11 6.256407940031314E-11 7.795964351135141E-11 9.333463883457711E-11 1.0736038957721635E-10 1.1865158031401113E-10 1.2598858428277925E-10 1.285337225133652E-10 1.2598858428277925E-10 1.1865158031401113E-10 2.0772005877241402E-10 8.593629009975699E-10 3.415882993783845E-9 1.3045405762501647E-8 4.7867463892088204E-8 1.6875298575085278E-7 5.715980433472658E-7 1.8601939266915526E-6 5.8163955230905655E-6 1.747341781230281E-5 5.043476625678885E-5 1.3986542970508976E-4 3.7266531720786734E-4 9.540162873079269E-4 0.002346501428356972 0.005545159943217707 0.01259028475016699 0.027465356997214266 0.05756561714872758 0.11592291739045918 0.2242867719485806 0.41693296979041133 0.744658307092434 1.2778387649535765 2.1067999523041445 3.337326996032607 5.079283386489853 7.4273578214333895 10.435048475476501 14.0858420921045 18.26835240527347 22.763768838381278 27.253179303401264 31.348618088260526 34.64558103300575 36.78794411714422 37.531109885139955 36.78794411714422 34.64558103300575 31.400369819130734 28.07737243202241 24.976957282729416 22.104666557673234 19.46210331742409 17.04735275870977 14.855439021682415 12.878800109317162 11.107764994391795 9.531018922213978 8.136045137517337 6.909533638910605 5.8377499713343175 4.906859398829102 4.103203967958391 3.404745473459935 2.7323722447292553 2.1067999523041445 1.5607557919982848 1.110899653824231 0.7597014027577577 0.4991593906910219 0.3151111598444445 0.19112457966326402 0.11137751478448037
5.495593453816189E-15 1.4068617124461595E-14 3.460321444900138E-14 8.177295626175244E-14 1.8566548390685349E-13 4.0502410380310395E-13 8.489044033871731E-13 1.7094835407045465E-12 3.3074956503416E-12 6.148396412704767E-12 1.0981272280576583E-11 1.884393858898977E-11 3.10684023754345E-11 4.921464795826677E-11 7.490280216578644E-11 1.0952921331247064E-10 1.538828043396815E-10 2.0772005877241402E-10 2.693983938259256E-10 3.3569106980410297E-10 4.018951774144033E-10 4.622894924668702E-10 5.109089028063332E-10 5.425017449551549E-10 5.534610071701021E-10 5.425017449551549E-10 5.109089028063332E-10 4.622894924668702E-10 1.1145336016681331E-9 4.430161427168241E-9 1.6918979226151385E-8 6.208075409403632E-8 2.188608244349616E-7 7.413226998963535E-7 2.4125414705592214E-6 7.543458349844266E-6 2.266180127765712E-5 6.541036577238509E-5 1.8139568386896777E-4 4.8332086214372753E-4 0.0012372924261788228 0.003043248300840364 0.007191684765732906 0.016328719092180814 0.035620647830703414 0.07465858083766795 0.1503439192977573 0.29088426258125877 0.5407329126440966 0.9657697627537771 1.6572675401761259 2.7323722447292553 4.32827979019659 6.587475442640296 9.6327638230493 13.53352832366127 18.26835240527347 23.692775868212184 29.523016692401427 35.34546819587803 40.65696597405991 44.932896411722155 47.71139155210344 48.67522559599717 47.71139155210344 44.932896411722155 40.9978940787418 37.153838612119586 33.49709925844845 30.04499102850656 26.810093330139896 23.800492374373395 21.020107178936843 18.46908071240031 16.144217541125585 14.039449899965364 12.146315297439843 10.45443046068016 8.951948489501401 7.6259883866025255 6.46302853264962 5.393368730035602 4.32827979019659 3.337326996032607 2.4723526470339383 1.7597472415623396 1.2034232284723767 0.7907054051593443 0.4991593906910219 0.30275547453758134 0.17643022368343347
2.2735932009094743E-14 5.820356347168051E-14 1.4315766579536617E-13 3.383045688102821E-13 7.681204685202163E-13 1.6756334986383256E-12 3.5120197590724936E-12 7.072339298522114E-12 1.3683507861070829E-11 2.5436656473769176E-11 4.543084601193948E-11 7.795964351135141E-11 1.285337225133652E-10 2.0360692602792226E-10 3.0988191387218185E-10 4.5313554719967633E-10 6.366316952369053E-10 8.593629009975699E-10 1.1145336016681331E-9 1.388794386496404E-9 1.6626887533196023E-9 1.9125473085981135E-9 2.1136916649064966E-9 2.244395057926015E-9 2.289734845645556E-9 2.244395057926015E-9 2.1136916649064966E-9 1.9125473085981135E-9 1.6626887533196023E-9 5.52032106714016E-9 2.1082346318998432E-8 7.735738309389611E-8 2.727173805655754E-7 9.237449661970604E-7 3.0062117880409033E-6 9.39972791789601E-6 2.8238343245283883E-5 8.150633472817838E-5 2.260329406981056E-4 6.022548797247295E-4 0.0015417613011934367 0.0037921208930767657 0.008961391040299537 0.02034683690106439 0.04438606039028746 0.09303032032049485 0.18734005942224272 0.3624641108965754 0.6737946999085469 1.2034232284723767 2.065082518171257 3.404745473459935 5.393368730035602 8.208499862389877 12.003162851145674 16.863814726859555 22.763768838381278 29.523016692401427 36.78794411714422 44.04316545059993 50.66169923655897 55.989836656540206 59.452054797019436 60.653065971263345 59.452054797019436 55.995609102192724 51.69579127642348 47.480771813703996 43.38521173453982 39.43910413529323 35.66758706196676 32.09089188084266 28.724416366809024 25.578908473061514 22.660744345956367 19.972282627403164 17.512276420878226 15.27632442357476 13.257343552584858 11.446046800561204 9.827358560436156 8.208499862389877 6.587475442640296 5.079283386489853 3.7628256807176226 2.6782676492638178 1.831563888873417 1.2034232284723767 0.7597014027577577 0.4607821929992749 0.26852001769538214
9.03730931455602E-14 2.313534391695757E-13 5.690376387583517E-13 1.3447273811528882E-12 3.0532033004330002E-12 6.660478320822169E-12 1.39599330561311E-11 2.8111852987890587E-11 5.4390597666807366E-11 1.011082072156109E-10 1.8058314375132197E-10 3.0988191387218185E-10 5.109089028063332E-10 8.093175016375902E-10 1.231750123781735E-9 1.8011692240397211E-9 2.5305483615119127E-9 3.415882993783845E-9 4.430161427168241E-9 5.52032106714016E-9 6.609024231587269E-9 7.602187409607361E-9 8.401716438858878E-9 8.921249568491277E-9 9.101470764487946E-9 8.921249568491277E-9 8.401716438858878E-9 7.602187409607361E-9 6.609024231587269E-9 6.609024231587269E-9 2.5240151068452096E-8 9.261360220567798E-8 3.2650198323820526E-7 1.105923512627486E-6 3.5990889498640312E-6 1.1253517471925882E-5 3.3807434839047335E-5 9.758079914099331E-5 2.706105612412539E-4 7.210299990312847E-4 0.0018458233995780567 0.004539992976248479 0.010728732951170824 0.024359586422561932 0.053139762179825314 0.11137751478448037 0.2242867719485806 0.43394832707388964 0.8066787139099616 1.4407591843112353 2.4723526470339383 4.07622039783662 6.457034689316848 9.827358560436156 14.370394977770298 20.189651799465537 27.253179303401264 35.34546819587803 44.04316545059993 52.729242404304856 60.653065971263345 67.03200460356393 71.17703227626097 72.6149037073691 71.17703227626097 67.28124539995686 62.95289075196955 58.60014648344708 54.267909804649236 49.997565272845186 45.82642581718982 41.78731674776606 37.90830381033983 34.2125613100067 30.718371863427468 27.43924559810801 24.384143697329872 21.557789140895167 18.961046317634395 16.591350845839553 14.370394977770298 12.003162851145674 9.6327638230493 7.4273578214333895 5.502322005640725 3.9163895098987074 2.6782676492638178 1.7597472415623396 1.110899653824231 0.6737946999085469 0.3926526838305625
3.4513877443742225E-13 8.835488493047429E-13 2.1731794986090852E-12 5.135572371480255E-12 1.166031623508171E-11 2.5436656473769176E-11 5.331359167336592E-11 1.0736038957721635E-10 2.0772005877241402E-10 3.8613664210600964E-10 6.896548823221214E-10 1.1834525106040504E-9 1.95118332709636E-9 3.0908187484083245E-9 4.704107310462815E-9 6.87874362713457E-9 9.664274285047388E-9 1.3045405762501647E-8 1.6918979226151385E-8 2.1082346318998432E-8 2.5240151068452096E-8 2.903308445323871E-8 3.208652059975357E-8 3.407064022429895E-8 3.4758912812399264E-8 3.407064022429895E-8 3.208652059975357E-8 2.903308445323871E-8 2.5240151068452096E-8 2.1082346318998432E-8 2.903308445323871E-8 1.0653100003497697E-7 3.7556667659383064E-7 1.272114840115557E-6 4.1399377187851705E-6 1.2944626292938417E-5 3.8887806501929316E-5 1.122446365234345E-4 3.112762382898642E-4 8.29381916075739E-4 0.0021232022938522145 0.005222234967574471 0.01234098040866794 0.028020194012871213 0.06112527611295737 0.1281146370384212 0.25799119720271807 0.4991593906910219 0.9279013887064737 1.6572675401761259 2.843882471418451 4.688769521998851 7.4273578214333895 11.304153064044986 16.529888822158657 23.22362747297589 31.348618088260526 40.65696597405991 50.66169923655897 60.653065971263345 69.76763260710311 77.10515858035663 81.87307530779819 83.5270211411272 81.87307530779819 78.07300986418613 74.03601243009686 69.84679541863406 65.55582991841688 61.2121343599525 56.86238801611162 52.55015905907787 48.31526255043604 44.19325819141181 40.215092115800786 36.40688171413389 32.78983764857937 29.380313028457167 26.189966294420913 23.226021784791186 20.189651799465537 16.863814726859555 13.53352832366127 10.435048475476501 7.730474044329972 5.502322005640725 3.7628256807176226 2.4723526470339383 1.5607557919982848 0.9466462401710334 0.5516564420760778
1.2664165549094197E-12 3.2420028484326674E-12 7.974040292384725E-12 1.884393858898977E-11 4.278515950477222E-11 9.333463883457711E-11 1.9562338426589476E-10 3.939371197099855E-10 7.621865194512874E-10 1.4168498941252668E-9 2.5305483615119127E-9 4.342438353445089E-9 7.159470480028959E-9 1.1341130933749797E-8 1.7260765278404357E-8 2.5240151068452096E-8 3.5461089429082884E-8 4.7867463892088204E-8 6.208075409403632E-8 7.735738309389611E-8 9.261360220567798E-8 1.0653100003497697E-7 1.1773496311217167E-7 1.250152866386744E-7 1.2754076295260457E-7 1.250152866386744E-7 1.1773496311217167E-7 1.0653100003497697E-7 9.261360220567798E-8 7.735738309389611E-8 6.208075409403632E-8 1.1773496311217167E-7 4.1506536876982277E-7 1.4059043257481627E-6 4.5753387694458E-6 1.4306024524312938E-5 4.2977672813685264E-5 1.240495079956712E-4 3.4401344604594253E-4 9.166087736247624E-4 0.002346501428356972 0.005771462213521026 0.013638892648201145 0.030967103541862634 0.06755387751938452 0.14158857103468014 0.28512436826796334 0.5516564420760778 1.0254896296404015 1.831563888873417 3.1429762018367717 5.1818917172725865 8.208499862389877 12.493021219858248 18.26835240527347 25.66607769535559 34.64558103300575 44.932896411722155 55.989836656540206 67.03200460356393 77.10515858035663 85.21437889662113 90.48374180359595 92.31163463866358 90.56773475061092 87.49327546357091 84.08861783000982 80.40093906994767 76.47973900082329 72.3757440928478 68.13983144451119 63.82200399155913 59.47044487414153 55.130674567128764 50.844829372991505 46.651074450070396 42.5831589705344 38.67011553009922 34.9361007998944 31.348618088260526 27.253179303401264 22.763768838381278 18.26835240527347 14.0858420921045 10.435048475476501 7.4273578214333895 5.079283386489853 3.337326996032607 2.1067999523041445 1.2778387649535765 0.744658307092434
4.464652134632917E-12 1.1429426503964358E-11 2.8111852987890587E-11 6.643282600821857E-11 1.508357206584794E-10 3.2904394126290494E-10 6.896548823221214E-10 1.388794386496404E-9 2.687028733053805E-9 4.9949930611206075E-9 8.921249568491277E-9 1.530892547879489E-8 2.5240151068452096E-8 3.9982266684865815E-8 6.085147280085755E-8 8.898217092106947E-8 1.250152866386744E-7 1.6875298575085278E-7 2.188608244349616E-7 2.727173805655754E-7 3.2650198323820526E-7 3.7556667659383064E-7 4.1506536876982277E-7 4.407315777651242E-7 4.496349462280874E-7 4.407315777651242E-7 4.1506536876982277E-7 3.7556667659383064E-7 3.2650198323820526E-7 2.727173805655754E-7 2.188608244349616E-7 1.6875298575085278E-7 4.407315777651242E-7 1.4928405940256096E-6 4.8582619182234344E-6 1.5190659675689652E-5 4.563526367903997E-5 1.3172030117077435E-4 3.652860495145929E-4 9.732886947188954E-4 0.0024916009731503217 0.006128349505322217 0.01448227466826878 0.03288200228140395 0.0717311760109315 0.1503439192977573 0.30275547453758134 0.5857689713335614 1.0889023668554452 1.9448214745385404 3.337326996032607 5.502322005640725 8.716085146198127 13.265546508012175 19.398004229089185 27.253179303401264 36.78794411714422 47.71139155210344 59.452054797019436 71.17703227626097 81.87307530779819 90.48374180359595 96.07894391523232 98.01986733067552 96.71496274329627 94.69243408682716 92.23553271829401 89.3804648885472 86.16845906625599 82.64477709993754 78.85765665808513 74.85721935043117 70.69437882223222 66.41978163182524 62.08281099546228 57.730679694869025 53.40763381802518 49.15428379731349 45.00707368983279 40.65696597405991 35.34546819587803 29.523016692401427 23.692775868212184 18.26835240527347 13.53352832366127 9.6327638230493 6.587475442640296 4.32827979019659 2.7323722447292553 1.6572675401761259 0.9657697627537771
1.5122614945314905E-11 3.871361325655473E-11 9.522012360994881E-11 2.2502045336483805E-10 5.109089028063332E-10 1.1145336016681331E-9 2.3359905578335605E-9 4.704107310462815E-9 9.101470764487946E-9 1.6918979226151385E-8 3.021794710696835E-8 5.185420459669655E-8 8.549313009381088E-8 1.354274432773538E-7 2.06115362243856E-7 3.0139931785484317E-7 4.234502454176725E-7 5.715980433472658E-7 7.413226998963535E-7 9.237449661970604E-7 1.105923512627486E-6 1.272114840115557E-6 1.4059043257481627E-6 1.4928405940256096E-6 1.5229979744712643E-6 1.4928405940256096E-6 1.4059043257481627E-6 1.272114840115557E-6 1.105923512627486E-6 9.237449661970604E-7 7.413226998963535E-7 5.715980433472658E-7 4.496349462280874E-7 1.5229979744712643E-6 4.956405319172502E-6 1.5497531357028978E-5 4.65571571578309E-5 1.3438122776315224E-4 3.7266531720786734E-4 9.929504305851088E-4 0.002541934651619926 0.006252150377482029 0.014774836023203373 0.033546262790251205 0.0731802418880473 0.15338106793244638 0.308871540823677 0.5976022895005945 1.110899653824231 1.9841094744370291 3.404745473459935 5.613476283413374 8.892161745938635 13.53352832366127 19.789869908361467 27.803730045319412 37.531109885139955 48.67522559599717 60.653065971263345 72.6149037073691 83.5270211411272 92.31163463866358 98.01986733067552 100.0 99.74259988489968 98.97436801154437 97.70710799712543 95.96015685773904 93.75989409520203 91.13907903474501 88.13603967500336 84.79374110754101 81.15876511393961 77.28023472451888 73.20871826711834 68.99514676397538 64.6897765367326 60.341225703811816 55.989836656540206 50.66169923655897 44.04316545059993 36.78794411714422 29.523016692401427 22.763768838381278 16.863814726859555 12.003162851145674 8.208499862389877 5.393368730035602 3.404745473459935 2.065082518171257 1.2034232284723767
4.921464795826677E-11 1.2598858428277925E-10 3.0988191387218185E-10 7.323007585530643E-10 1.6626887533196023E-9 3.6271094015224963E-9 7.602187409607361E-9 1.530892547879489E-8 2.9619591664303987E-8 5.50606895328129E-8 9.834050752920302E-8 1.6875298575085278E-7 2.7822663710158763E-7 4.407315777651242E-7 6.707765177056668E-7 9.808661647953488E-7 1.378065554894573E-6 1.8601939266915526E-6 2.4125414705592214E-6 3.0062117880409033E-6 3.5990889498640312E-6 4.1399377187851705E-6 4.5753387694458E-6 4.8582619182234344E-6 4.956405319172502E-6 4.8582619182234344E-6 4.5753387694458E-6 4.1399377187851705E-6 3.5990889498640312E-6 3.0062117880409033E-6 2.4125414705592214E-6 1.8601939266915526E-6 1.378065554894573E-6 1.4928405940256096E-6 4.8582619182234344E-6 1.5190659675689652E-5 4.563526367903997E-5 1.3172030117077435E-4 3.652860495145929E-4 9.732886947188954E-4 0.0024916009731503217 0.006128349505322217 0.01448227466826878 0.03288200228140395 0.0717311760109315 0.1503439192977573 0.30275547453758134 0.5857689713335614 1.0889023668554452 1.9448214745385404 3.337326996032607 5.502322005640725 8.716085146198127 13.265546508012175 19.398004229089185 27.253179303401264 36.78794411714422 47.71139155210344 59.452054797019436 71.17703227626097 81.87307530779819 90.48374180359595 96.07894391523232 98.27282168680972 99.34237804573 99.90725952543005 99.95877138792693 99.49611912114976 98.52642882801726 97.06456460405404 95.13274944449026 92.76000319330967 89.98141740003905 86.83729240222526 83.37216626941012 79.63376825687246 75.67193102343582 71.53749604001483 67.03200460356393 60.653065971263345 52.729242404304856 44.04316545059993 35.34546819587803 27.253179303401264 20.189651799465537 14.370394977770298 9.827358560436156 6.457034689316848 4.07622039783662 2.4723526470339383 1.4407591843112353
1.538828043396815E-10 3.939371197099855E-10 9.689289652388798E-10 2.289734845645556E-9 5.198842595030524E-9 1.1341130933749797E-8 2.3770279098576798E-8 4.7867463892088204E-8 9.261360220567798E-8 1.721620221965372E-7 3.0748798795866094E-7 5.276514973764787E-7 8.699502472413703E-7 1.378065554894573E-6 2.0973627956717965E-6 3.066941294563569E-6 4.308891782197059E-6 5.8163955230905655E-6 7.543458349844266E-6 9.39972791789601E-6 1.1253517471925882E-5 1.2944626292938417E-5 1.4306024524312938E-5 1.5190659675689652E-5 1.5497531357028978E-5 1.5190659675689652E-5 1.4306024524312938E-5 1.2944626292938417E-5 1.1253517471925882E-5 9.39972791789601E-6 7.543458349844266E-6 5.8163955230905655E-6 4.308891782197059E-6 3.066941294563569E-6 4.5753387694458E-6 1.4306024524312938E-5 4.2977672813685264E-5 1.240495079956712E-4 3.4401344604594253E-4 9.166087736247624E-4 0.002346501428356972 0.005771462213521026 0.013638892648201145 0.030967103541862634 0.06755387751938452 0.14158857103468014 0.28512436826796334 0.5516564420760778 1.0254896296404015 1.831563888873417 3.1429762018367717 5.1818917172725865 8.208499862389877 12.493021219858248 18.26835240527347 25.66607769535559 34.64558103300575 44.932896411722155 55.989836656540206 67.03200460356393 77.10515858035663 85.21437889662113 90.48374180359595 93.26822337263759 95.5554080705412 97.3953466082103 98.76032538579825 99.62955383047483 99.98969125303732 99.83518751158572 99.16842532441524 97.9996591321427 96.34675270152822 94.23472485498343 91.69511947054394 88.76522192142056 85.4871491474137 81.90684436292185 77.10515858035663 69.76763260710311 60.653065971263345 50.66169923655897 40.65696597405991 31.348618088260526 23.22362747297589 16.529888822158657 11.304153064044986 7.4273578214333895 4.688769521998851 2.843882471418451 1.831563888873417
4.622894924668702E-10 1.1834525106040504E-9 2.910823476988221E-9 6.87874362713457E-9 1.5618186287836282E-8 3.407064022429895E-8 7.140986484766855E-8 1.4380180867709325E-7 2.7822663710158763E-7 5.172032976967457E-7 9.237449661970604E-7 1.5851527009028743E-6 2.613474975286327E-6 4.1399377187851705E-6 6.300826050646546E-6 9.213600834566143E-6 1.2944626292938417E-5 1.747341781230281E-5 2.266180127765712E-5 2.8238343245283883E-5 3.3807434839047335E-5 3.8887806501929316E-5 4.2977672813685264E-5 4.563526367903997E-5 4.65571571578309E-5 4.563526367903997E-5 4.2977672813685264E-5 3.8887806501929316E-5 3.3807434839047335E-5 2.8238343245283883E-5 2.266180127765712E-5 1.747341781230281E-5 1.2944626292938417E-5 9.213600834566143E-6 6.300826050646546E-6 1.2944626292938417E-5 3.8887806501929316E-5 1.122446365234345E-4 3.112762382898642E-4 8.29381916075739E-4 0.0021232022938522145 0.005222234967574471 0.01234098040866794 0.028020194012871213 0.06112527611295737 0.1281146370384212 0.25799119720271807 0.4991593906910219 0.9279013887064737 1.6572675401761259 2.843882471418451 4.688769521998851 7.4273578214333895 11.304153064044986 16.529888822158657 23.22362747297589 31.348618088260526 40.65696597405991 50.66169923655897 60.653065971263345 69.76763260710311 77.10515858035663 81.90684436292185 85.4871491474137 88.76522192142062 91.695119470544 94.23472485498343 96.34675270152825 97.99965913214272 99.16842532441524 99.83518751158572 99.98969125303732 99.62955383047482 98.76032538579825 97.39534660821028 95.55540807054118 93.26822337263759 90.48374180359595 85.21437889662113 77.10515858035663 67.03200460356393 55.989836656540206 44.932896411722155 34.64558103300575 25.66607769535559 18.26835240527347 12.493021219858248 8.208499862389877 5.1818917172725865 3.337326996032607 3.1429762018367717
1.3343389796997806E-9 3.415882993783845E-9 8.401716438858878E-9 1.9854606047973185E-8 4.507987980619289E-8 9.834050752920302E-8 2.06115362243856E-7 4.1506536876982277E-7 8.030652937716083E-7 1.4928405940256096E-6 2.6662706719135024E-6 4.5753387694458E-6 7.543458349844266E-6 1.1949396128877693E-5 1.818652152100997E-5 2.659387015558673E-5 3.736299379885256E-5 5.043476625678885E-5 6.541036577238509E-5 8.150633472817838E-5 9.758079914099331E-5 1.122446365234345E-4 1.240495079956712E-4 1.3172030117077435E-4 1.3438122776315224E-4 1.3172030117077435E-4 1.240495079956712E-4 1.122446365234345E-4 9.758079914099331E-5 8.150633472817838E-5 6.541036577238509E-5 5.043476625678885E-5 3.736299379885256E-5 2.659387015558673E-5 1.818652152100997E-5 2.228989556994838E-5 3.3807434839047335E-5 9.758079914099331E-5 2.706105612412539E-4 7.210299990312847E-4 0.0018458233995780567 0.004539992976248479 0.010728732951170824 0.024359586422561932 0.053139762179825314 0.11137751478448037 0.2242867719485806 0.43394832707388964 0.8066787139099616 1.4407591843112353 2.4723526470339383 4.07622039783662 6.457034689316848 9.827358560436156 14.370394977770298 20.189651799465537 27.253179303401264 35.34546819587803 44.04316545059993 52.729242404304856 60.653065971263345 67.03200460356393 71.53749604001483 75.67193102343582 79.63376825687251 83.37216626941019 86.83729240222526 89.9814174000391 92.76000319330971 95.13274944449026 97.06456460405404 98.52642882801729 99.49611912114979 99.95877138792693 99.90725952543005 99.34237804573 98.27282168680972 96.07894391523232 90.48374180359595 81.87307530779819 71.17703227626097 59.452054797019436 47.71139155210344 36.78794411714422 27.253179303401264 19.398004229089185 13.265546508012175 8.716085146198127 5.613476283413374 5.502322005640725 5.1818917172725865
3.7003818718568673E-9 9.472908832676045E-9 2.329959603655628E-8 5.50606895328129E-8 1.250152866386744E-7 2.727173805655754E-7 5.715980433472658E-7 1.1510571073753824E-6 2.227056467808874E-6 4.1399377187851705E-6 7.394087866662117E-6 1.2688305518789939E-5 2.0919479197970832E-5 3.313800277713885E-5 5.043476625678885E-5 7.374998146901935E-5 1.0361485876900842E-4 1.3986542970508976E-4 1.8139568386896777E-4 2.260329406981056E-4 2.706105612412539E-4 3.112762382898642E-4 3.4401344604594253E-4 3.652860495145929E-4 3.7266531720786734E-4 3.652860495145929E-4 3.4401344604594253E-4 3.112762382898642E-4 2.706105612412539E-4 2.260329406981056E-4 1.8139568386896777E-4 1.3986542970508976E-4 1.0361485876900842E-4 7.374998146901935E-5 5.043476625678885E-5 6.246104925521968E-5 8.785540507330291E-5 1.2306576391360777E-4 2.260329406981056E-4 6.022548797247295E-4 0.0015417613011934367 0.0037921208930767657 0.008961391040299537 0.02034683690106439 0.04438606039028746 0.09303032032049485 0.18734005942224272 0.3624641108965754 0.6737946999085469 1.2034232284723767 2.065082518171257 3.404745473459935 5.393368730035602 8.208499862389877 12.003162851145674 16.863814726859555 22.763768838381278 29.523016692401427 36.78794411714422 44.04316545059993 50.66169923655897 55.989836656540206 60.341225703811816 64.6897765367326 68.99514676397546 73.20871826711843 77.28023472451888 81.15876511393967 84.79374110754108 88.13603967500336 91.13907903474501 93.75989409520207 95.96015685773908 97.70710799712543 98.97436801154439 99.74259988489969 100.0 98.01986733067552 92.31163463866358 83.5270211411272 72.6149037073691 60.653065971263345 48.67522559599717 37.531109885139955 27.803730045319412 19.789869908361467 13.53352832366127 8.892161745938635 8.892161745938635 8.716085146198127 8.208499862389877
9.859505575991564E-9 2.5240151068452096E-8 6.208075409403632E-8 1.4670679791064112E-7 3.330977608210126E-7 7.266435269305904E-7 1.5229979744712643E-6 3.066941294563569E-6 5.933894506782637E-6 1.1030682896016183E-5 1.9701223569702454E-5 3.3807434839047335E-5 5.5739036926945906E-5 8.8294758344622E-5 1.3438122776315224E-4 1.965035984673079E-4 2.760772572037196E-4 3.7266531720786734E-4 4.8332086214372753E-4 6.022548797247295E-4 7.210299990312847E-4 8.29381916075739E-4 9.166087736247624E-4 9.732886947188954E-4 9.929504305851088E-4 9.732886947188954E-4 9.166087736247624E-4 8.29381916075739E-4 7.210299990312847E-4 6.022548797247295E-4 4.8332086214372753E-4 3.7266531720786734E-4 2.760772572037196E-4 1.965035984673079E-4 1.3438122776315224E-4 1.6886093182841457E-4 2.3464244901944328E-4 3.247084125796346E-4 4.4749692417248705E-4 6.141806433678964E-4 0.0012372924261788228 0.003043248300840364 0.007191684765732906 0.016328719092180814 0.035620647830703414 0.07465858083766795 0.1503439192977573 0.29088426258125877 0.5407329126440966 0.9657697627537771 1.6572675401761259 2.7323722447292553 4.32827979019659 6.587475442640296 9.6327638230493 13.53352832366127 18.26835240527347 23.692775868212184 29.523016692401427 35.34546819587803 40.65696597405991 45.00707368983286 49.15428379731349 53.40763381802518 57.7306796948691 62.08281099546235 66.41978163182524 70.69437882223231 74.85721935043124 78.85765665808513 82.64477709993754 86.16845906625605 89.38046488854725 92.23553271829401 94.69243408682719 96.71496274329631 98.01986733067552 96.07894391523232 90.48374180359595 81.87307530779819 71.17703227626097 59.452054797019436 47.71139155210344 36.78794411714422 27.253179303401264 19.398004229089185 13.265546508012175 13.265546508012175 13.53352832366127 13.265546508012175 12.493021219858248
2.5240151068452096E-8 6.461431773106115E-8 1.5892557691660143E-7 3.7556667659383064E-7 8.527240781888751E-7 1.8601939266915526E-6 3.898846514799559E-6 7.851312725189438E-6 1.5190659675689652E-5 2.8238343245283883E-5 5.043476625678885E-5 8.654640498933893E-5 1.426908988085513E-4 2.260329406981056E-4 3.4401344604594253E-4 5.030455607111461E-4 7.067526484648328E-4 9.540162873079269E-4 0.0012372924261788228 0.0015417613011934367 0.0018458233995780567 0.0021232022938522145 0.002346501428356972 0.0024916009731503217 0.002541934651619926 0.0024916009731503217 0.002346501428356972 0.0021232022938522145 0.0018458233995780567 0.0015417613011934367 0.0012372924261788228 9.540162873079269E-4 7.067526484648328E-4 5.030455607111461E-4 3.4401344604594253E-4 4.404207294794772E-4 6.045933201021645E-4 8.265487882354498E-4 0.0011253385562627254 0.0015258346064924583 0.0020603513129243884 0.0027706690488874045 0.005545159943217707 0.01259028475016699 0.027465356997214266 0.05756561714872758 0.11592291739045918 0.2242867719485806 0.41693296979041133 0.744658307092434 1.2778387649535765 2.1067999523041445 3.337326996032607 5.079283386489853 7.4273578214333895 10.435048475476501 14.0858420921045 18.26835240527347 22.763768838381278 27.253179303401264 31.348618088260526 34.93610079989447 38.67011553009922 42.5831589705344 46.651074450070475 50.84482937299158 55.130674567128764 59.47044487414159 63.82200399155919 68.13983144451119 72.3757440928478 76.47973900082336 80.40093906994775 84.08861783000982 87.49327546357097 90.56773475061097 92.31163463866358 90.48374180359595 85.21437889662113 77.10515858035663 67.03200460356393 55.989836656540206 44.932896411722155 34.64558103300575 25.66607769535559 18.26835240527347 18.26835240527347 19.398004229089185 19.789869908361467 19.398004229089185 18.26835240527347
6.208075409403632E-8 1.5892557691660143E-7 3.908938434264868E-7 9.237449661970604E-7 2.0973627956717965E-6 4.5753387694458E-6 9.589615017724412E-6 1.9311113205542063E-5 3.736299379885256E-5 6.94551169000181E-5 1.240495079956712E-4 2.1286980697122744E-4 3.509629786432931E-4 5.55951324165014E-4 8.461365421744255E-4 0.0012372924261788228 0.00173833101298252 0.002346501428356972 0.003043248300840364 0.0037921208930767657 0.004539992976248479 0.005222234967574471 0.005771462213521026 0.006128349505322217 0.006252150377482029 0.006128349505322217 0.005771462213521026 0.005222234967574471 0.004539992976248479 0.0037921208930767657 0.003043248300840364 0.002346501428356972 0.00173833101298252 0.0012372924261788228 8.461365421744255E-4 0.0011082174560611956 0.001502930059128456 0.002029841422818014 0.002730203427578904 0.0036571052605862578 0.004878535504645889 0.006481134523111445 0.008574763645047672 0.011298032937711044 0.02034683690106439 0.042645658068565434 0.08587780939743375 0.1661557273173933 0.308871540823677 0.5516564420760778 0.9466462401710334 1.5607557919982848 2.4723526470339383 3.7628256807176226 5.502322005640725 7.730474044329972 10.435048475476501 13.53352832366127 16.863814726859555 20.189651799465537 23.226021784791186 26.18996629442096 29.380313028457167 32.78983764857937 36.40688171413397 40.215092115800864 44.19325819141181 48.31526255043611 52.55015905907795 56.86238801611162 61.2121343599525 65.55582991841695 69.84679541863412 74.03601243009686 78.0730098641862 81.87307530779819 83.5270211411272 81.87307530779819 77.10515858035663 69.76763260710311 60.653065971263345 50.66169923655897 40.65696597405991 31.348618088260526 23.22362747297589 23.22362747297589 25.66607769535559 27.253179303401264 27.803730045319412 27.253179303401264 25.66607769535559
1.4670679791064112E-7 3.7556667659383064E-7 9.237449661970604E-7 2.1829577951254875E-6 4.956405319172502E-6 1.0812260740342585E-5 2.266180127765712E-5 4.563526367903997E-5 8.8294758344622E-5 1.64133602234864E-4 2.9314892136891326E-4 5.030455607111461E-4 8.29381916075739E-4 0.0013138023168804537 0.0019995566179747334 0.0029239208281656767 0.004107955522530075 0.005545159943217707 0.007191684765732906 0.008961391040299537 0.010728732951170824 0.01234098040866794 0.013638892648201145 0.01448227466826878 0.014774836023203373 0.01448227466826878 0.013638892648201145 0.01234098040866794 0.010728732951170824 0.008961391040299537 0.007191684765732906 0.005545159943217707 0.004107955522530075 0.0029239208281656767 0.001999762715337781 0.0026903010786081933 0.0036043990037318663 0.004809217209976801 0.006390362292365601 0.008456411826286123 0.011144390609013842 0.01462635407863945 0.019117248972622004 0.02488423339589557 0.0322576475363922 0.04164383095502163 0.06112527611295737 0.11826471566155732 0.2198455963042534 0.3926526838305625 0.6737946999085469 1.110899653824231 1.7597472415623396 2.6782676492638178 3.9163895098987074 5.502322005640725 7.4273578214333895 9.6327638230493 12.003162851145674 14.370394977770298 16.591350845839553 18.96104631763445 21.557789140895167 24.384143697329872 27.439245598108048 30.718371863427542 34.2125613100067 37.9083038103399 41.78731674776615 45.82642581718982 49.997565272845186 54.26790980464931 58.600146483447155 62.95289075196955 67.28124539995693 71.17703227626097 72.6149037073691 71.17703227626097 67.03200460356393 60.653065971263345 52.729242404304856 44.04316545059993 35.34546819587803 27.253179303401264 27.253179303401264 31.348618088260526 34.64558103300575 36.78794411714422 37.531109885139955 36.78794411714422 34.64558103300575
3.330977608210126E-7 8.527240781888751E-7 2.0973627956717965E-6 4.956405319172502E-6 1.1253517471925882E-5 2.4549236254305766E-5 5.145361611911217E-5 1.0361485876900842E-4 2.0047323447642732E-4 3.7266531720786734E-4 6.655945783409189E-4 0.0011421648638660512 0.0018831115057022748 0.002982987947026769 0.004539992976248479 0.006638761765307788 0.009327112346494885 0.01259028475016699 0.016328719092180814 0.02034683690106439 0.024359586422561932 0.028020194012871213 0.030967103541862634 0.03288200228140395 0.033546262790251205 0.03288200228140395 0.030967103541862634 0.028020194012871213 0.024359586422561932 0.02034683690106439 0.016328719092180814 0.01259028475016699 0.009327112346494885 0.006638761765307788 0.004740834985111804 0.006300796441656004 0.008339607586154842 0.010992724369056812 0.014430275342969685 0.018864854223066507 0.024560762502848655 0.03184489300172736 0.04111945016409762 0.052876702026508154 0.06771595028369654 0.08636288691184937 0.10969147632546412 0.13874845897926388 0.17478051364659675 0.26852001769538214 0.4607821929992749 0.7597014027577577 1.2034232284723767 1.831563888873417 2.6782676492638178 3.7628256807176226 5.079283386489853 6.587475442640296 8.208499862389877 9.827358560436156 11.446046800561204 13.257343552584889 15.27632442357476 17.512276420878226 19.972282627403214 22.660744345956406 25.578908473061514 28.72441636680909 32.09089188084274 35.66758706196676 39.43910413529323 43.38521173453989 47.480771813704074 51.69579127642348 55.99560910219279 59.452054797019436 60.653065971263345 59.452054797019436 55.989836656540206 50.66169923655897 44.04316545059993 36.78794411714422 29.523016692401427 30.53108410214767 35.477573197598424 40.65696597405991 44.932896411722155 47.71139155210344 48.67522559599717 47.71139155210344 44.932896411722155
7.266435269305904E-7 1.8601939266915526E-6 4.5753387694458E-6 1.0812260740342585E-5 2.4549236254305766E-5 5.355347802793113E-5 1.122446365234345E-4 2.260329406981056E-4 4.373268009850429E-4 8.129590538020515E-4 0.0014519761127166808 0.0024916009731503217 0.004107955522530075 0.006507305474754297 0.009903868763242701 0.01448227466826878 0.02034683690106439 0.027465356997214266 0.035620647830703414 0.04438606039028746 0.053139762179825314 0.06112527611295737 0.06755387751938452 0.0717311760109315 0.0731802418880473 0.0717311760109315 0.06755387751938452 0.06112527611295737 0.053139762179825314 0.04438606039028746 0.035620647830703414 0.027465356997214266 0.02034683690106439 0.01448227466826878 0.010843010429897063 0.014236678476958434 0.01861559984061441 0.024241246570947582 0.03143709587888102 0.04060125393320743 0.05222110171092514 0.06689014996483687 0.08532727292159611 0.10839846146603158 0.13714119423083146 0.17279146715779392 0.2168134468415532 0.2709316187109176 0.3371651866963811 0.41786434595051397 0.5157478947218633 0.6339414769341642 0.7907054051593443 1.2034232284723767 1.7597472415623396 2.4723526470339383 3.337326996032607 4.32827979019659 5.393368730035602 6.4630285326496395 7.6259883866025255 8.95194848950143 10.45443046068016 12.146315297439843 14.039449899965394 16.144217541125634 18.46908071240031 21.020107178936893 23.800492374373444 26.810093330139896 30.04499102850656 33.49709925844852 37.15383861211965 40.9978940787418 44.932896411722155 47.71139155210344 48.67522559599717 47.71139155210344 44.932896411722155 40.65696597405991 35.34546819587803 29.523016692401427 34.02295592190113 39.2494340637431 44.82128505188815 50.666949425604116 55.989836656540206 59.452054797019436 60.653065971263345 59.452054797019436 55.989836656540206
1.5229979744712643E-6 3.898846514799559E-6 9.589615017724412E-6 2.266180127765712E-5 5.145361611911217E-5 1.122446365234345E-4 2.3525752000097726E-4 4.7375046785475824E-4 9.166087736247624E-4 0.0017039097526934611 0.003043248300840364 0.005222234967574471 0.008610009871634024 0.013638892648201145 0.020757870271771763 0.030353913807886636 0.042645658068565434 0.05756561714872758 0.07465858083766795 0.09303032032049485 0.11137751478448037 0.1281146370384212 0.14158857103468014 0.1503439192977573 0.15338106793244638 0.1503439192977573 0.14158857103468014 0.1281146370384212 0.11137751478448037 0.09303032032049485 0.07465858083766795 0.05756561714872758 0.042645658068565434 0.030353913807886636 0.023925640692687343 0.031034201036728003 0.04008917493752777 0.05157309841438971 0.06607373933280272 0.08430320853196405 0.1071195842858442 0.13555115098568354 0.17082329590132309 0.21438803353455524 0.2679560338036613 0.33353091691770104 0.41344544375164205 0.5103990760648898 0.6274962072623184 0.7682841740140689 0.936789955722667 1.137554257844962 1.375661463317697 1.656763732282366 1.9870973439865631 2.3734892175735514 2.8233514329992393 3.344661512810651 3.9459262334909346 4.6361268246352045 5.424643597378638 6.321158330336325 7.335533139156548 8.477665068331635 9.757316270387973 11.183920372069267 12.878800109317162 14.855439021682445 17.04735275870982 19.46210331742409 22.104666557673234 24.976957282729458 28.077372432022475 31.400369819130734 34.64558103300575 36.78794411714422 37.531109885139955 36.78794411714422 34.64558103300575 31.348618088260526 32.60094156912438 37.718258186710244 43.19790279441727 48.97373703893474 54.96084173401846 61.05666151570712 67.03200460356393 71.17703227626097 72.6149037073691 71.17703227626097 67.03200460356393
3.066941294563569E-6 7.851312725189438E-6 1.9311113205542063E-5 4.563526367903997E-5 1.0361485876900842E-4 2.260329406981056E-4 4.7375046785475824E-4 9.540162873079269E-4 0.0018458233995780567 0.003431252877771799 0.006128349505322217 0.010516289805000117 0.017338430690350532 0.027465356997214266 0.04180121746110127 0.06112527611295737 0.08587780939743375 0.11592291739045918 0.1503439192977573 0.18734005942224272 0.2242867719485806 0.25799119720271807 0.28512436826796334 0.30275547453758134 0.308871540823677 0.30275547453758134 0.28512436826796334 0.25799119720271807 0.2242867719485806 0.18734005942224272 0.1503439192977573 0.11592291739045918 0.08587780939743375 0.06137026687227349 0.05093261114121418 0.06526662051025468 0.08329057611169409 0.10585470419575482 0.13397816215994215 0.16887580243818037 0.21198756755858983 0.26501039774267926 0.32993242006271234 0.40906905516145675 0.5051005240705881 0.6211100649321053 0.7606219798029425 0.9276384289299049 1.1266736791335026 1.3627843010315193 1.6415936051686884 1.9693084196532298 2.352726152988035 2.7992299679159163 3.316769828524184 3.9138271870823553 4.5993611622708475 5.38273423867464 6.273615798871908 7.281862191616373 8.417372546397965 9.689920165543715 11.108960054337027 12.683413976002667 14.421435324324 16.330157068431273 18.41542701216732 20.68153558919048 23.130942344808243 25.7640080933538 28.57874044095742 31.570560883296572 34.64558103300575 36.78794411714422 37.531109885139955 36.78794411714422 34.64558103300575 31.348618088260526 31.21247499180534 36.21677892257126 41.598817458808796 47.297882297646446 53.234350003447 59.310524329308464 65.41255597615216 71.41345151460695 77.17710367152853 81.87307530779819 83.5270211411272 81.87307530779819 77.10515858035663
5.933894506782637E-6 1.5190659675689652E-5 3.736299379885256E-5 8.8294758344622E-5 2.0047323447642732E-4 4.373268009850429E-4 9.166087736247624E-4 0.0018458233995780567 0.0035712849641635165 0.006638761765307788 0.011857083645433888 0.02034683690106439 0.033546262790251205 0.053139762179825314 0.08087667511241124 0.11826471566155732 0.1661557273173933 0.2242867719485806 0.29088426258125877 0.3624641108965754 0.43394832707388964 0.4991593906910219 0.5516564420760778 0.5857689713335614 0.5976022895005945 0.5857689713335614 0.5516564420760778 0.4991593906910219 0.43394832707388964 0.3624641108965754 0.29088426258125877 0.2242867719485806 0.1661557273173933 0.12017217005510383 0.10460368183576013 0.13242206208352297 0.16694879094358095 0.2096118187867993 0.2620944416858834 0.3263693839500929 0.40473481990000215 0.4998518255638327 0.6147825791624614 0.7530284403940548 0.9185668362836387 1.1158856708642786 1.3500137639202092 1.6265456187719678 1.9516586304987926 2.332120685364697 2.7752859819835995 3.2890768381492 3.881949247775327 4.562840033230272 5.341093611651844 6.226366669918943 7.228509429465305 8.357422683144957 9.622890401624701 11.034388430890635 12.60087062433726 14.330534655363369 16.230570716030947 18.306897294707497 20.563889205725253 23.004103977378985 25.628013548057442 28.433748929248647 31.416866023989957 34.57014109776292 37.88340444817731 41.343420579248765 44.932896411722155 47.71139155210344 48.67522559599717 47.71139155210344 44.932896411722155 40.65696597405991 40.025730811600816 45.641521178618106 51.51936470867591 57.56658090557747 63.67367566240789 69.71704231271836 75.56271185692367 81.07102533144374 86.10202069212052 90.48374180359595 92.31163463866358 90.48374180359595 85.21437889662113
1.1030682896016183E-5 2.8238343245283883E-5 6.94551169000181E-5 1.64133602234864E-4 3.7266531720786734E-4 8.129590538020515E-4 0.0017039097526934611 0.003431252877771799 0.006638761765307788 0.01234098040866794 0.022041465283014688 0.03782330567826259 0.06236008859994447 0.09878299405312299 0.1503439192977573 0.2198455963042534 0.308871540823677 0.41693296979041133 0.5407329126440966 0.6737946999085469 0.8066787139099616 0.9279013887064737 1.0254896296404015 1.0889023668554452 1.110899653824231 1.0889023668554452 1.0254896296404015 0.9279013887064737 0.8066787139099616 0.6737946999085469 0.5407329126440966 0.41693296979041133 0.3101095012572255 0.2279042227340878 0.20726055891022158 0.25920789883528045 0.3228414986777556 0.4004423802063316 0.49465257012740876 0.608513282161541 0.7455030261292659 0.9095745821688584 1.1051895679765253 1.337349114815674 1.6116189622301391 1.934147091721088 2.311671857333131 2.751518448535199 3.261581451169991 3.85029126909113 4.526562245628075 5.299720492436089 6.179409704030111 7.175473617160896 8.297814269457215 9.556225821392287 10.96020442452003 12.518735436270898 14.240060180533954 16.131425410671245 18.198819618377097 20.446701313179947 22.877725334005486 25.49247410324783 28.289201450526125 31.26359717313022 34.40858082059819 37.71413325396317 41.167174304763876 44.751494322784886 48.44774654359448 52.233506028874565 56.083399449796055 59.452054797019436 60.653065971263345 59.452054797019436 55.989836656540206 50.66169923655897 49.818311697918425 55.827614561332 61.92965855497459 68.00453071142958 73.9207830277341 79.53985914354213 84.7213026551317 89.32848741844022 93.23455105968783 96.32817579618873 98.01986733067552 96.07894391523232 90.48374180359595
1.9701223569702454E-5 5.043476625678885E-5 1.240495079956712E-4 2.9314892136891326E-4 6.655945783409189E-4 0.0014519761127166808 0.003043248300840364 0.006128349505322217 0.011857083645433888 0.022041465283014688 0.03936690406550784 0.06755387751938452 0.11137751478448037 0.17643022368343347 0.26852001769538214 0.3926526838305625 0.5516564420760778 0.744658307092434 0.9657697627537771 1.2034232284723767 1.4407591843112353 1.6572675401761259 1.831563888873417 1.9448214745385404 1.9841094744370291 1.9448214745385404 1.831563888873417 1.6572675401761259 1.4407591843112353 1.2034232284723767 0.9657697627537771 0.744658307092434 0.560553935282568 0.4186040415850677 0.3961913808264704 0.4895023500901834 0.6023017091154527 0.7380452105450236 0.9006610743571399 1.094584708952821 1.3247896202028198 1.5968128283839398 1.9167729221970329 2.2913787150906306 2.7279263442582082 3.2342825800971866 3.8188521071215535 4.490526609554966 5.258613658388198 6.132743662099585 7.12275351845568 8.238546094317185 9.489925264366631 10.88640695330698 12.437007438851353 14.150011068175184 16.032720495646576 18.091193535723438 20.32997170746929 22.75180648698657 25.35739013853021 28.14509871948102 31.110755404057635 34.247422603014314 37.5452314333276 40.99125688147881 44.569446483703246 48.26060950483904 52.04247243509948 55.88980515598896 59.77462038190463 63.6664470062472 67.53267582720359 71.17703227626097 72.6149037073691 71.17703227626097 67.03200460356393 60.653065971263345 60.18349620213244 66.27911560814306 72.25460722097631 77.97294408669556 83.29364523160885 88.07838712836266 92.19691431213015 95.53290127495558 97.9893995692266 99.49351496216534 100.0 98.01986733067552 92.31163463866358
3.3807434839047335E-5 8.654640498933893E-5 2.1286980697122744E-4 5.030455607111461E-4 0.0011421648638660512 0.0024916009731503217 0.005222234967574471 0.010516289805000117 0.02034683690106439 0.03782330567826259 0.06755387751938452 0.11592291739045918 0.19112457966326402 0.30275547453758134 0.4607821929992749 0.6737946999085469 0.9466462401710334 1.2778387649535765 1.6572675401761259 2.065082518171257 2.4723526470339383 2.843882471418451 3.1429762018367717 3.337326996032607 3.404745473459935 3.337326996032607 3.1429762018367717 2.843882471418451 2.4723526470339383 2.065082518171257 1.6572675401761259 1.2829603563674323 0.9813463594319533 0.7446583070924346 0.7306544703620099 0.8918257239977686 1.0840704358122681 1.3123345502154393 1.5821264137760427 1.8995352444856566 2.2712403084099266 2.7045086492080306 3.207179140487247 3.787630620554953 4.454731937110844 5.217771888144373 6.086367305411447 7.070347896452951 8.179616944868604 9.423987566896749 10.81299493070134 12.355685652924178 14.060386478770875 15.934455304691166 17.984018588015793 20.21370017154264 22.626347494045607 25.222762017454286 28.00144143345119 30.958341771698215 34.08666787609663 37.37670080584032 40.81567052259376 44.38768172077253 48.07369983231473 51.85160309083102 55.696305086627895 59.57995051233165 63.472184831530384 67.3404964564332 71.15062776349292 74.8670489864498 78.45348678937034 81.87307530779819 83.5270211411272 81.87307530779819 77.10515858035663 69.76763260710311 70.567461269163 76.37355574253714 81.82218559102346 86.77381459791673 91.09527504043142 94.6656805902197 97.38202920846363 99.16413470496117 99.95855781244572 99.74126793236098 98.51885056825041 96.07894391523232 90.48374180359595
6.94551169000181E-5 1.426908988085513E-4 3.509629786432931E-4 8.29381916075739E-4 0.0018831115057022748 0.004107955522530075 0.008610009871634024 0.017338430690350532 0.033546262790251205 0.06236008859994447 0.11137751478448037 0.19112457966326402 0.3151111598444445 0.4991593906910219 0.7597014027577577 1.110899653824231 1.5607557919982848 2.1067999523041445 2.7323722447292553 3.404745473459935 4.07622039783662 4.688769521998851 5.1818917172725865 5.502322005640725 5.613476283413374 5.502322005640725 5.1818917172725865 4.688769521998851 4.07622039783662 3.404745473459935 2.7323722447292553 2.1407798659484327 1.6639098861723631 1.2829603563674323 1.2999831786318639 1.5675589186500063 1.8824331848310925 2.2512556906469445 2.681264346821032 3.180270050961352 3.7566256707017307 4.419177042437637 5.177193961656743 6.040279395687734 7.01825551366235 8.121025606479119 9.358411562230462 10.739967265596732 12.274769093213655 13.971185565033231 15.8366291620651 17.87729430533101 20.09788647546677 22.501348398408602 25.088590087584084 27.858230272481126 30.806357312609446 33.926318051773904 37.20854317146145 40.64041742162616 44.206202618643324 47.88702049078333 51.660901320873776 55.50290289723042 59.38530256517126 63.27786321467721 67.1481719007589 70.9620475397798 74.6840118351479 78.27781534418223 81.70700849286447 84.9355454644579 87.92840731505835 90.6522294788704 92.31163463866358 90.48374180359595 85.21437889662113 77.10515858035663 80.31011471398297 85.41772275569699 89.93221288296826 93.72859760830863 96.6982259576057 98.75394238638792 99.83433426861032 99.90677922887838 98.96908134284861 97.04958170031746 94.20573556372098 90.52125579219789 85.21437889662113
1.64133602234864E-4 2.9314892136891326E-4 5.55951324165014E-4 0.0013138023168804537 0.002982987947026769 0.006507305474754297 0.013638892648201145 0.027465356997214266 0.053139762179825314 0.09878299405312299 0.17643022368343347 0.30275547453758134 0.4991593906910219 0.7907054051593443 1.2034232284723767 1.7597472415623396 2.4723526470339383 3.337326996032607 4.32827979019659 5.393368730035602 6.457034689316848 7.4273578214333895 8.208499862389877 8.716085146198127 8.892161745938635 8.716085146198127 8.208499862389877 7.4273578214333895 6.457034689316848 5.393368730035602 4.345627581810222 3.4596595420891987 2.7323722447292575 2.1407798659484327 2.2314239187480505 2.6581924239271006 3.153554233224192 3.7258361215198663 4.383860741751815 5.136878660232998 5.994478695135688 6.96647513205505 8.062770862803275 9.293196080583954 10.667322862405975 12.19425676840278 13.882407471987065 15.739241382640001 17.7710202066394 19.982530376508713 22.376809228882564 24.954874680568786 27.715465899381964 30.65480304502799 33.766374522849915 37.04076031055566 40.46549975240365 44.02501174259767 47.70057442640113 51.47037043265009 55.309602227618505 59.19068047455352 63.083486337117556 66.95570653358017 70.7732376992146 74.5006543243875 78.1017322897252 81.5400179057089 84.77943047007584 87.78488476622421 90.52291871482022 92.96231062208541 95.07467018920379 96.83498768674525 98.01986733067552 96.07894391523232 90.48374180359595 84.01314668873262 88.71042734740321 92.72388926886754 95.93965583621625 98.26395070916098 99.62763799827952 99.9896378426081 99.33898196458065 97.69536568727925 95.10815764957532 91.65393669354465 87.43272739171404 82.56319237937355 77.10515858035663
3.7266531720786734E-4 6.655945783409189E-4 0.0011421648638660512 0.0019995566179747334 0.004539992976248479 0.009903868763242701 0.020757870271771763 0.04180121746110127 0.08087667511241124 0.1503439192977573 0.26852001769538214 0.4607821929992749 0.7597014027577577 1.2034232284723767 1.831563888873417 2.6782676492638178 3.7628256807176226 5.079283386489853 6.587475442640296 8.208499862389877 9.827358560436156 11.304153064044986 12.493021219858248 13.265546508012175 13.53352832366127 13.265546508012175 12.493021219858248 11.304153064044986 9.827358560436156 8.208499862389877 6.693722761675019 5.41498540949243 4.345627581810222 3.4596595420891987 3.695260839639699 4.348781853376222 5.096824766575997 5.948963966495267 6.915005513118768 8.00485149584441 9.228339949210635 10.59506062113651 12.114147681214185 13.79405133705392 15.642291271984652 17.665195799889887 19.86763161921934 22.252729999933848 24.821616112214105 27.573148959792213 30.503679968918025 33.606838663036385 36.87335398390699 40.29091966905975 43.844111638522406 47.514364566670395 51.2800137161269 55.11640670182293 58.996088160937354 62.889058369164964 66.76310472013165 70.58420273952788 74.31698101562017 77.92524217744085 81.37252992919622 84.62273024242833 87.64069320021343 90.39286075610546 92.8478848784346 94.97722024619402 96.75567587591217 98.16191079890861 99.17886016288402 99.79407986691861 100.0 98.01986733067552 92.31163463866358 91.65393669354461 95.10815764957528 97.69536568727925 99.33898196458064 99.9896378426081 99.62763799827952 98.26395070916101 95.93965583621629 92.72388926886754 88.71042734740327 84.01314668873269 78.76066596061261 73.09052076117027 67.1432379397756
8.129590538020515E-4 0.0014519761127166808 0.0024916009731503217 0.004107955522530075 0.006638761765307788 0.01448227466826878 0.030353913807886636 0.06112527611295737 0.11826471566155732 0.2198455963042534 0.3926526838305625 0.6737946999085469 1.110899653824231 1.7597472415623396 2.6782676492638178 3.9163895098987074 5.502322005640725 7.4273578214333895 9.6327638230493 12.003162851145674 14.370394977770298 16.529888822158657 18.26835240527347 19.398004229089185 19.789869908361467 19.398004229089185 18.26835240527347 16.529888822158657 14.370394977770298 12.05127165601494 9.985860935030319 8.208499862389884 6.693722761675019 5.41498540949243 5.903733973085609 6.863845417911894 7.947266286016672 9.163841992470354 10.523179437465553 12.034440828489638 13.706116290135306 15.545778126450905 17.559820582096346 19.75318993551715 22.12911071176662 24.68881468255292 27.43128008223937 30.352989066019788 33.44771182698689 36.70632593273426 40.11667930603019 43.6635048328842 47.3283938203911 51.089834443745104 54.9233199279887 58.80152953099426 62.69458346987802 66.57037081732632 70.39494715341128 74.1329964688282 77.74834956108131 81.20454903390014 84.46544909031664 87.49583668572348 90.26205935522806 92.7326442142693 94.87889230182354 96.67543262241622 98.10072095692713 99.13746974162915 99.77299702712934 99.9994846702276 99.81413840978537 99.2192452443339 98.222126464206 96.07894391523232 94.20573556372094 97.04958170031742 98.9690813428486 99.90677922887838 99.83433426861033 98.75394238638793 96.6982259576057 93.72859760830866 89.93221288296832 85.41772275569699 80.31011471398304 74.74498375679656 68.86259836124094 62.80212050063865 56.696305285183
0.0017039097526934611 0.003043248300840364 0.005222234967574471 0.008610009871634024 0.013638892648201145 0.020757870271771763 0.042645658068565434 0.08587780939743375 0.1661557273173933 0.308871540823677 0.5516564420760778 0.9466462401710334 1.5607557919982848 2.4723526470339383 3.7628256807176226 5.502322005640725 7.730474044329972 10.435048475476501 13.53352832366127 16.863814726859555 20.189651799465537 23.22362747297589 25.66607769535559 27.253179303401264 27.803730045319412 27.253179303401264 25.66607769535559 23.22362747297589 20.189651799465537 17.135805889335742 14.42799167427882 12.05127165601494 9.985860935030319 8.208499862389884 9.099701031897522 10.451678202814374 11.955135201270181 13.618601453696911 15.449701233259644 17.454894039422893 19.639205044771174 22.00595135040227 24.5564706759181 27.28985987820235 30.202731299898737 33.28899535033026 36.53967787870827 39.94278077804988 43.483193832705915 47.142665077614055 50.89983587035014 54.73034549828253 58.607008477492585 62.50006578692429 66.3775091735999 70.20547542834635 73.94870524233936 77.5710589965162 81.0360796964138 84.30759133250166 87.35031930529111 90.13051828224935 92.61659201504744 94.7796892908672 96.5942603521186 98.03855880644234 99.09507525313722 99.7508905413516 99.99793869684422 99.83317203633554 99.25862374397721 98.28136611361361 96.9133656558653 95.1712392202133 93.23455105968783 96.32817579618873 98.5188505682504 99.74126793236098 99.95855781244572 99.16413470496117 97.38202920846368 94.66568059021974 91.09527504043142 86.7738145979168 81.82218559102351 76.37355574253714 70.56746126916306 64.54394772063327 58.43810228337271 52.37526483226207 46.46713625482809
0.003431252877771799 0.006128349505322217 0.010516289805000117 0.017338430690350532 0.027465356997214266 0.04180121746110127 0.06112527611295737 0.11592291739045918 0.2242867719485806 0.41693296979041133 0.744658307092434 1.2778387649535765 2.1067999523041445 3.337326996032607 5.079283386489853 7.4273578214333895 10.435048475476501 14.0858420921045 18.26835240527347 22.763768838381278 27.253179303401264 31.348618088260526 34.64558103300575 36.78794411714422 37.531109885139955 36.78794411714422 34.64558103300575 31.348618088260526 27.362410337040803 23.598194054475854 20.189651799465537 17.135805889335742 14.42799167427882 12.05127165601494 13.531505942851549 15.35405987058582 17.35041564726989 19.52567665388566 21.8832518877589 24.424584361013988 27.148888942173212 30.052907615996062 33.13069054970684 36.373411523969935 39.769226180150774 43.30318112554244 46.9571812095956 50.71002123312286 54.53748698880132 58.41252887918278 62.305509456445186 66.18452412875658 70.0157920464333 73.76411189264371 77.39337504153991 80.86712639915324 84.14916129750661 87.20414515510113 89.9982413246097 92.49973168708475 94.67961417208917 96.51216151756886 97.97542624451467 99.05167800047742 99.72776109202599 99.99536212765054 99.85118015874697 99.29699445044258 98.33962793699432 96.9908074111536 95.26692445286271 93.18870391128999 92.19691431213015 95.53290127495553 97.9893995692266 99.49351496216534 100.0 99.49351496216534 97.98939956922665 95.53290127495558 92.1969143121302 88.07838712836272 83.29364523160885 77.97294408669563 72.25460722097638 66.27911560814306 60.183496202132524 54.09631348424446 48.13350364635499 42.39521368008116 36.96372496448681
0.006638761765307788 0.011857083645433888 0.02034683690106439 0.033546262790251205 0.053139762179825314 0.08087667511241124 0.11826471566155732 0.1661557273173933 0.29088426258125877 0.5407329126440966 0.9657697627537771 1.6572675401761259 2.7323722447292553 4.32827979019659 6.587475442640296 9.6327638230493 13.53352832366127 18.26835240527347 23.692775868212184 29.523016692401427 35.34546819587803 40.65696597405991 44.932896411722155 47.71139155210344 48.67522559599717 47.71139155210344 44.932896411722155 40.65696597405991 35.91554413294046 31.474263684278203 27.362410337040803 23.598194054475854 20.189651799465537 17.24638487036011 19.41260445738331 21.761012281730434 24.293155990989508 27.00836785172124 29.903518941679728 32.97279872280342 36.207528551147874 39.59601758766139 43.12346917945997 46.77194506875373 50.52039375151184 54.34474795948041 58.21809460068445 62.1109186029211 65.99142001381584 69.82590148422088 73.57922097421098 77.21530225567986 80.69769363016039 83.99016332342093 87.05731834479474 89.86523228694737 92.38206665738761 94.57866992809603 96.42913859788163 97.91132519698806 99.0072793171535 99.70360939306444 99.99175504231161 99.86816222079966 99.33435618305076 98.3969101533715 97.06731060754294 95.36172302521632 93.30066479170047 90.90859450184921 91.09527504043137 94.6656805902197 97.38202920846363 99.16413470496116 99.95855781244572 99.74126793236098 98.51885056825044 96.32817579618876 93.23455105968787 89.32848741844022 84.72130265513175 79.5398591435422 73.9207830277341 68.00453071142965 61.929658554974665 55.827614561332 49.818311697918496 44.00666811235327 38.48021754555697 33.30781145302378 28.539359671662545
0.01234098040866794 0.022041465283014688 0.03782330567826259 0.06236008859994447 0.09878299405312299 0.1503439192977573 0.2198455963042534 0.308871540823677 0.41693296979041133 0.6737946999085469 1.2034232284723767 2.065082518171257 3.404745473459935 5.393368730035602 8.208499862389877 12.003162851145674 16.863814726859555 22.763768838381278 29.523016692401427 36.78794411714422 44.04316545059993 50.66169923655897 55.989836656540206 59.452054797019436 60.653065971263345 59.452054797019436 55.989836656540206 50.86475186803138 45.65760496233147 40.656965974059915 35.91554413294046 31.474263684278203 27.362410337040803 24.162185803511594 26.86829716755575 29.754566186295307 32.81532114839045 36.04203062337925 39.423157056207536 42.944060443014145 46.58695948862378 50.330956627167225 54.15213195400529 58.023709492374785 61.916297339037676 65.79820115085863 69.63580821253711 73.39403703930768 77.03684520000512 80.52778588290634 83.83060175770393 86.90984299727789 89.73149499091633 92.26360037348613 94.47685956518836 96.34519409861208 97.84625761839186 98.96188056703544 99.6784361898136 99.98711755235277 99.8841176979043 99.37070779187536 98.45321101102022 97.14287292713577 95.45563209990436 93.41179742163592 91.03564134519047 88.35492038311203 89.93221288296826 93.72859760830863 96.69822595760567 98.75394238638792 99.83433426861032 99.90677922887838 98.96908134284861 97.04958170031746 94.20573556372102 90.52125579219789 86.10202069212059 81.07102533144374 75.56271185692374 69.71704231271842 63.67367566240789 57.566580905577545 51.519364708675994 45.641521178618106 40.02573081160089 34.746253053278195 29.858379561615767 25.398849170361824 21.38707497216088
0.022041465283014688 0.03936690406550784 0.06755387751938452 0.11137751478448037 0.17643022368343347 0.26852001769538214 0.3926526838305625 0.5516564420760778 0.744658307092434 0.9657697627537771 1.4407591843112353 2.4723526470339383 4.07622039783662 6.457034689316848 9.827358560436156 14.370394977770298 20.189651799465537 27.253179303401264 35.34546819587803 44.04316545059993 52.729242404304856 60.653065971263345 67.03200460356393 71.17703227626097 72.6149037073691 71.17703227626097 67.03200460356393 61.631320191228966 56.21424451968225 50.86475186803138 45.65760496233147 40.656965974059915 35.91554413294046 32.658259086360026 35.87691938432912 39.25064662171248 42.76495734523068 46.402227283817524 50.14171304387609 53.95964249972203 57.82937739027617 61.721649765553565 65.60487185287676 69.44551669632149 73.20856463781485 76.85800843693413 80.35740765609508 83.67048095698762 86.76172324852956 89.59703327500344 92.14433630326599 94.37418611321185 96.2603305516297 97.78022549184153 98.91548314428942 99.65224225901643 99.98144980115384 99.89904609712943 99.40604815780173 98.50852878755603 97.2174920793211 95.54864886426519 93.52209852239127 91.1619261630497 88.49572645970905 85.55406729285404 88.71042734740321 92.7238892688675 95.93965583621625 98.26395070916098 99.62763799827951 99.9896378426081 99.33898196458065 97.69536568727928 95.10815764957532 91.65393669354465 87.4327273917141 82.56319237937355 77.17710367152858 71.41345151460695 65.41255597615223 59.31052432930854 53.234350003447 47.297882297646524 41.59881745880886 36.21677892257126 31.212474991805404 26.6278524018437 22.487108888136905 18.79838989447817 15.555974816311693
0.03782330567826259 0.06755387751938452 0.11592291739045918 0.19112457966326402 0.30275547453758134 0.4607821929992749 0.6737946999085469 0.9466462401710334 1.2778387649535765 1.6572675401761259 2.065082518171257 2.843882471418451 4.688769521998851 7.4273578214333895 11.304153064044986 16.529888822158657 23.22362747297589 31.348618088260526 40.65696597405991 50.66169923655897 60.653065971263345 69.76763260710311 77.10515858035663 81.87307530779819 83.5270211411272 81.87307530779819 77.41419687922485 72.32502423798424 67.03200460356393 61.631320191228966 56.21424451968225 50.86475186803138 45.65760496233147 42.586162295587094 46.21775124998112 49.95266616749729 53.767283107550604 57.63510211594771 61.52697997116967 65.41143642362086 69.25503139445588 73.02280831704718 76.6787965300448 80.18656345346768 83.50980528687974 86.61296324740837 89.46185099434547 92.02427793479951 94.2706526254073 96.17455051499098 97.71323082893805 98.86808847330674 99.62502840877234 99.97475196394186 99.91294695722672 99.44037619258434 98.56286179002322 97.29116580089035 95.6407705304853 93.63156483709852 91.28744529341166 88.63584338988547 85.70719185118243 82.56319237937349 87.43272739171397 91.65393669354461 95.10815764957528 97.69536568727922 99.33898196458064 99.9896378426081 99.62763799827954 98.26395070916101 95.93965583621629 92.7238892688676 88.71042734740327 84.01314668873269 78.76066596061268 73.09052076117027 67.1432379397756 61.05666151570712 54.96084173401854 48.973737038934814 43.19790279441727 37.71825818671031 32.600941569124444 27.8931913447106 23.624129628605957 19.806282820469658 16.437648285457527 13.504109144244007 10.982007687764698
0.06236008859994447 0.11137751478448037 0.19112457966326402 0.3151111598444445 0.4991593906910219 0.7597014027577577 1.110899653824231 1.5607557919982848 2.1067999523041445 2.7323722447292553 3.404745473459935 4.076556508195877 5.1818917172725865 8.208499862389877 12.493021219858248 18.26835240527347 25.66607769535559 34.64558103300575 44.932896411722155 55.989836656540206 67.03200460356393 77.10515858035663 85.21437889662113 90.48374180359595 92.31163463866358 90.48374180359595 86.5887748059205 82.20122346781866 77.41419687922485 72.32502423798424 67.03200460356393 61.631320191228966 56.21424451968225 53.575057271899176 57.440887476375124 61.332292032397426 65.2178991574508 69.06435675959885 72.83677262157258 76.49921404388293 80.01525778360521 83.34857912176699 86.4635671554607 89.32595202054574 91.90342877617552 94.16626217825888 96.08785657281103 97.64527566966575 98.81969800863094 99.5967954784955 99.9670242477819 99.92581984865481 99.47369083890267 98.61620835498093 97.36389185615181 95.73199433573836 93.74019313088752 91.4121950928913 88.77526719196699 85.8597055435552 82.69825729523488 81.07102533144368 86.10202069212052 90.52125579219783 94.20573556372094 97.04958170031742 98.9690813428486 99.90677922887836 99.83433426861033 98.75394238638793 96.69822595760573 93.72859760830866 89.93221288296832 85.41772275569706 80.31011471398304 74.74498375679656 68.86259836124101 62.80212050063865 56.696305285183 50.666949425604116 44.82128505188822 39.249434063743166 34.02295592190113 29.194445720904177 24.79807529062944 20.85092194520574 17.354899339326877 14.299092771828754 11.662305583770788 9.415641149603639 7.524972685592396
0.09878299405312299 0.17643022368343347 0.30275547453758134 0.4991593906910219 0.7907054051593443 1.2034232284723767 1.7597472415623396 2.4723526470339383 3.337326996032607 4.32827979019659 5.393368730035602 6.457034689316848 7.498467437772849 8.716085146198127 13.265546508012175 19.398004229089185 27.253179303401264 36.78794411714422 47.71139155210344 59.452054797019436 71.17703227626097 81.87307530779819 90.48374180359595 96.07894391523232 98.01986733067552 96.46402934831231 93.80049995307294 90.48374180359595 86.5887748059205 82.20122346781866 77.41419687922485 72.32502423798424 67.03200460356393 65.02426433918723 68.87349723801832 72.65046209303104 76.31926554377235 79.84349515973383 83.18680684461842 86.31353914672668 89.18934024148892 91.7817923553289 94.0610178713425 96.00025133513412 97.57636208228854 98.7703132348831 99.56754433887176 99.9582668915665 99.9376643736013 99.50599107041562 98.66856684858796 97.43566803704361 95.82231754232347 93.84798019104485 91.53617193690978 88.91399389944354 86.01160413636968 82.86164152781564 79.4986171249156 79.53985914354213 84.7213026551317 89.32848741844016 93.23455105968783 96.32817579618873 98.5188505682504 99.74126793236098 99.95855781244572 99.1641347049612 97.38202920846368 94.66568059021974 91.09527504043146 86.7738145979168 81.82218559102351 76.3735557425372 70.56746126916306 64.54394772063327 58.438102283372785 52.37526483226207 46.46713625482809 40.80892289623691 35.477573197598474 30.53108410214773 26.008786797884365 21.932468382763123 18.308150657148282 15.12833007178878 12.374482720675138 10.019652599329328 8.030966653812653 6.371952498418441 5.004570190913865
0.1503439192977573 0.26852001769538214 0.4607821929992749 0.7597014027577577 1.2034232284723767 1.831563888873417 2.6782676492638178 3.7628256807176226 5.079283386489853 6.587475442640296 8.208499862389877 9.827358560436156 11.335011375231685 12.93350264737983 14.696702692994574 19.789869908361467 27.803730045319412 37.531109885139955 48.67522559599717 60.653065971263345 72.6149037073691 83.5270211411272 92.31163463866358 98.01986733067552 100.0 99.60079893439915 98.41273200552851 96.46402934831231 93.80049995307294 90.48374180359595 86.5887748059205 82.20122346781866 77.41419687922485 76.13895559562565 79.67128009952805 83.02449284678741 86.16288340754706 89.05201956115711 91.65937221986965 93.95492282717196 95.91173743780223 97.5064921632453 98.71993566668631 99.53727589181402 99.94848016600334 99.94848016600334 99.53727589181402 98.71993566668631 97.5064921632453 95.91173743780223 93.95492282717196 91.65937221986965 89.05201956115711 86.16288340754706 83.02449284678741 79.67128009952805 76.13895559562549 77.97294408669556 83.29364523160878 88.07838712836266 92.19691431213015 95.53290127495553 97.9893995692266 99.49351496216534 100.0 99.49351496216534 97.98939956922665 95.5329012749556 92.1969143121302 88.07838712836272 83.2936452316089 77.97294408669563 72.25460722097638 66.27911560814313 60.183496202132524 54.09631348424446 48.13350364635507 42.39521368008116 36.96372496448681 31.90246052801738 27.25600361339446 23.05099754834593 19.297756368912474 15.992393311626143 13.119269493103827 10.653575618021344 8.563882116921171 6.814523860777422 5.367720586448686 4.185369771601666 3.2304819152864193
0.2198455963042534 0.3926526838305625 0.6737946999085469 1.110899653824231 1.7597472415623396 2.6782676492638178 3.9163895098987074 5.502322005640725 7.4273578214333895 9.6327638230493 12.003162851145674 14.370394977770298 16.53065549285899 18.633844303383395 20.918204579897342 23.385997889299006 27.253179303401264 36.78794411714422 47.71139155210344 59.452054797019436 71.17703227626097 81.87307530779819 90.48374180359595 96.07894391523232 98.41273200552851 99.60079893439915 100.0 99.60079893439915 98.41273200552851 96.46402934831231 93.80049995307294 90.48374180359595 86.5887748059205 86.01160413636981 88.91399389944354 91.53617193690978 93.84798019104485 95.82231754232347 97.43566803704361 98.66856684858796 99.50599107041562 99.9376643736013 99.9582668915665 99.56754433887176 98.7703132348831 97.57636208228854 96.00025133513412 94.0610178713425 91.7817923553289 89.18934024148892 86.31353914672668 83.18680684461842 79.84349515973383 76.31926554377235 72.65046209303104 76.37355574253706 81.82218559102346 86.77381459791673 91.09527504043137 94.6656805902197 97.38202920846363 99.16413470496116 99.95855781244572 99.74126793236098 98.51885056825044 96.32817579618876 93.23455105968787 89.32848741844028 84.72130265513175 79.5398591435422 73.92078302773417 68.00453071142965 61.929658554974665 55.82761456133207 49.818311697918496 44.00666811235327 38.48021754555703 33.30781145302378 28.539359671662545 24.206494457956147 20.3239970857202 16.891798648635657 13.897357072617922 11.318218785662276 9.124592991443706 7.281795306737073 5.7524516884639745 4.49838934235909 3.482175466837789 2.668294798233576 2.0239813947081204
0.308871540823677 0.5516564420760778 0.9466462401710334 1.5607557919982848 2.4723526470339383 3.7628256807176226 5.502322005640725 7.730474044329972 10.435048475476501 13.53352832366127 16.863814726859555 20.189651799465537 23.22362747297589 25.900457343406686 28.724175253548417 31.72468065924851 34.89446201052655 38.22304758093585 44.932896411722155 55.989836656540206 67.03200460356393 77.10515858035663 85.21437889662113 90.48374180359595 93.80049995307294 96.46402934831231 98.41273200552851 99.60079893439915 100.0 99.60079893439915 98.41273200552851 96.46402934831231 93.80049995307294 93.7401931308876 95.73199433573836 97.36389185615181 98.61620835498093 99.47369083890267 99.92581984865481 99.9670242477819 99.5967954784955 98.81969800863094 97.64527566966575 96.08785657281103 94.16626217825888 91.90342877617552 89.32595202054574 86.4635671554607 83.34857912176699 80.01525778360521 76.49921404388293 72.83677262157258 69.06435675959885 74.74498375679647 80.31011471398297 85.41772275569693 89.93221288296826 93.72859760830863 96.69822595760567 98.75394238638792 99.83433426861032 99.90677922887838 98.96908134284861 97.04958170031746 94.20573556372102 90.52125579219789 86.10202069212059 81.0710253314438 75.56271185692374 69.71704231271842 63.67367566240796 57.566580905577545 51.519364708675994 45.64152117861817 40.02573081160089 34.746253053278195 29.858379561615827 25.398849170361824 21.38707497216088 17.827001167118468 14.709392688870802 12.014362732730456 9.713959438772145 7.77465953855678 6.159649810106221 4.830812850691454 3.750368582473561 2.8821543757508463 2.1925528701020376 1.651096505589655 1.2307912221558155
0.41693296979041133 0.744658307092434 1.2778387649535765 2.1067999523041445 3.337326996032607 5.079283386489853 7.4273578214333895 10.435048475476501 14.0858420921045 18.26835240527347 22.763768838381278 27.253179303401264 31.348618088260526 34.73210198423584 38.053043176777216 41.51999347205633 45.11642879412294 48.82269076802526 52.61605257925155 56.47085601077744 60.653065971263345 69.76763260710311 77.10515858035663 82.20122346781866 86.5887748059205 90.48374180359595 93.80049995307294 96.46402934831231 98.41273200552851 99.60079893439915 100.0 99.60079893439915 98.41273200552851 98.56286179002328 99.44037619258434 99.91294695722672 99.97475196394186 99.62502840877234 98.86808847330674 97.71323082893805 96.17455051499098 94.2706526254073 92.02427793479951 89.46185099434547 86.61296324740837 83.50980528687974 80.18656345346768 76.6787965300448 73.02280831704718 69.25503139445588 67.14323793977553 73.0905207611702 78.76066596061256 84.01314668873262 88.71042734740321 92.7238892688675 95.93965583621625 98.26395070916098 99.62763799827951 99.9896378426081 99.33898196458065 97.69536568727928 95.10815764957532 91.65393669354465 87.4327273917141 82.56319237937355 77.17710367152858 71.413451514607 65.41255597615223 59.31052432930854 53.23435000344708 47.297882297646524 41.59881745880886 36.21677892257132 31.212474991805404 26.6278524018437 22.487108888136905 18.79838989447817 15.555974816311693 12.742755730142344 10.33282402193605 8.294004300145 6.590206568406589 5.183502918498309 4.035870434243514 3.1105746737822093 2.3731959373192884 1.7923223028829673 1.3399486949571964 0.9916302792414857 0.7264419859020286
0.5407329126440966 0.9657697627537771 1.6572675401761259 2.7323722447292553 4.32827979019659 6.587475442640296 9.6327638230493 13.53352832366127 18.26835240527347 23.692775868212184 29.523016692401427 35.34546819587803 40.65696597405991 44.93382263402608 48.63510796526352 52.42470053004165 56.27708429693203 60.16401008411791 64.05477624879732 67.9165814805517 71.71494568424875 75.41419265091668 78.97798599361354 82.36990775814353 85.55406729285417 88.49572645970905 91.1619261630497 93.52209852239127 95.54864886426519 97.2174920793211 98.50852878755603 99.60079893439915 100.0 99.98144980115384 99.65224225901643 98.91548314428942 97.78022549184153 96.2603305516297 94.37418611321185 92.14433630326599 89.59703327500344 86.76172324852956 83.67048095698762 80.35740765609508 76.85800843693413 73.20856463781485 69.44551669632149 65.60487185287676 65.41255597615216 71.41345151460688 77.17710367152853 82.56319237937349 87.43272739171397 91.65393669354461 95.10815764957528 97.69536568727922 99.33898196458064 99.9896378426081 99.62763799827954 98.26395070916101 95.93965583621629 92.7238892688676 88.71042734740327 84.01314668873269 78.76066596061268 73.09052076117027 67.1432379397756 61.05666151570719 54.96084173401854 48.973737038934814 43.19790279441733 37.71825818671031 32.600941569124444 27.8931913447106 23.624129628605957 19.806282820469658 16.437648285457527 13.504109144244007 10.982007687764698 8.840709001118158 7.045016201438956 5.557333308957428 4.339507487644723 3.3543161052272485 2.566593446412753 1.9440154979754658 1.4575783636644108 1.0818166253638326 0.7948129564923627 0.5780504891138794 0.4161559958508396
0.6737946999085469 1.2034232284723767 2.065082518171257 3.404745473459935 5.393368730035602 8.208499862389877 12.003162851145674 16.863814726859555 22.763768838381278 29.523016692401427 36.78794411714422 44.04316545059993 50.66169923655897 55.989836656540206 59.96930822620612 63.86064554641868 67.72470563166249 71.52708134527867 75.23214395862848 78.80357665888266 82.20495130687499 85.40033611350206 88.35492038311203 91.03564134519047 93.41179742163601 95.45563209990436 97.14287292713577 98.45321101102022 99.37070779187536 99.8841176979043 99.98711755235277 99.6784361898136 98.96188056703544 99.60079893439915 100.0 99.60079893439915 98.41273200552851 96.46402934831231 93.80049995307294 90.48374180359595 86.5887748059205 82.20122346781866 77.41419687922485 72.32502423798424 67.03200460356393 61.916297339037676 63.6736756624078 69.71704231271836 75.56271185692367 81.07102533144368 86.10202069212052 90.52125579219783 94.20573556372094 97.04958170031742 98.9690813428486 99.90677922887836 99.83433426861033 98.75394238638793 96.69822595760573 93.72859760830866 89.93221288296832 85.41772275569706 80.31011471398304 74.74498375679656 68.86259836124101 62.80212050063865 56.696305285183 50.66694942560419 44.82128505188822 39.249434063743166 34.022955921901186 29.194445720904177 24.79807529062944 20.85092194520574 17.354899339326877 14.299092771828754 11.662305583770788 9.415641149603639 7.524972685592396 5.953186739613978 4.662121975875715 3.6141594278587763 2.773451201439226 2.1067999523041334 1.5842204644044688 1.1792271958566856 0.8688982094246664 0.6337673565897031 0.45759406026392874 0.3270547334622175 0.2313929100253944
0.8066787139099616 1.4407591843112353 2.4723526470339383 4.07622039783662 6.457034689316848 9.827358560436156 14.370394977770298 20.189651799465537 27.253179303401264 35.34546819587803 44.04316545059993 52.729242404304856 60.653065971263345 67.03200460356393 71.33897386775618 75.04976121555569 78.62874207635117 82.03947964808668 85.2460025691919 88.2134291567453 90.90859450184921 93.30066479170047 95.36172302521632 97.06731060754294 98.39691015337155 99.33435618305076 99.86816222079966 99.99175504231161 99.70360939306444 99.0072793171535 97.91132519698806 96.42913859788163 94.57866992809603 96.46402934831231 98.41273200552851 99.60079893439915 100.0 99.60079893439915 98.41273200552851 96.46402934831231 93.80049995307294 90.48374180359595 86.5887748059205 82.20122346781866 77.41419687922485 72.32502423798424 73.92078302773403 79.53985914354213 84.7213026551317 89.32848741844016 93.23455105968783 96.32817579618873 98.5188505682504 99.74126793236098 99.95855781244572 99.1641347049612 97.38202920846368 94.66568059021974 91.09527504043146 86.7738145979168 81.82218559102351 76.3735557425372 70.56746126916306 64.54394772063327 58.438102283372785 52.37526483226207 46.46713625482809 40.80892289623698 35.477573197598474 30.53108410214773 26.008786797884365 21.932468382763123 18.308150657148282 15.12833007178878 12.374482720675138 10.019652599329328 8.030966653812653 6.371952498418441 5.004570190913865 3.8909046505648686 2.9944973974281406 2.2813233202507597 1.72043903715417 1.2843437740032584 0.9491018710660397 0.694278829546303 0.5027413001799921 0.36036678361695607 0.2557022157970364 0.17960307896289504 0.12487704460500688
0.9279013887064737 1.6572675401761259 2.843882471418451 4.688769521998851 7.4273578214333895 11.304153064044986 16.529888822158657 23.22362747297589 31.348618088260526 40.65696597405991 50.66169923655897 60.653065971263345 69.76763260710311 77.10515858035663 81.87349722630508 85.0910709269281 88.0712567920481 90.78078931349434 93.18870391128999 95.26692445286271 96.9908074111536 98.33962793699432 99.29699445044258 99.85118015874697 99.99536212765054 99.72776109202599 99.05167800047742 97.97542624451467 96.51216151756886 94.67961417208917 92.49973168708475 89.9982413246097 87.20414515510113 90.48374180359595 93.80049995307294 96.46402934831231 98.41273200552851 99.60079893439915 100.0 99.60079893439915 98.41273200552851 96.46402934831231 93.80049995307294 90.48374180359595 86.5887748059205 82.20122346781866 83.29364523160878 88.07838712836266 92.19691431213015 95.53290127495553 97.9893995692266 99.49351496216534 100.0 99.49351496216534 97.98939956922665 95.5329012749556 92.1969143121302 88.07838712836272 83.2936452316089 77.97294408669563 72.25460722097638 66.27911560814313 60.183496202132524 54.09631348424446 48.13350364635507 42.39521368008116 36.96372496448681 31.902460528017436 27.25600361339446 23.05099754834593 19.297756368912474 15.992393311626143 13.119269493103827 10.653575618021344 8.563882116921171 6.814523860777422 5.367720586448686 4.185369771601666 3.2304819152864193 2.4682568059387 1.8668220440653047 1.3976712959798205 1.0358496413368277 0.7599376160748401 0.5518851553572439 0.396742779161843 0.28233121567209674 0.19888329811838917 0.13868429298244817 0.09572949955180571 0.06541146086510158
