5.613476283413374 5.502322005640725 5.1818917172725865 4.688769521998851 4.07622039783662 3.4135319085214553 2.825180475932776 2.3262146923575737 1.9055254834171313 1.5528914419968558 1.2590089012887975 1.015495196205673 0.8148699726515577 0.6505192081450761 0.516646276000525 0.40821395821961604 0.3208808257553674 0.2509348907820683 0.19522692079377715 0.15110531006208824 0.1163539461269781 0.08913409844073716 0.0679309993986944 0.05150548730308559 0.03885083574505759 0.02915470151105175 0.027465356997214266 0.053139762179825314 0.09878299405312299 0.17643022368343347 0.30275547453758134 0.4991593906910219 0.7907054051593443 1.2034232284723767 1.7597472415623396 2.4723526470339383 3.337326996032607 4.32827979019659 5.393368730035602 6.457034689316848 7.4273578214333895 8.208499862389877 8.716085146198127 8.892161745938635 8.716085146198127 8.208499862389877 7.4273578214333895 6.457034689316848 5.393368730035602 4.32827979019659 3.337326996032607 2.4723526470339383 1.7597472415623396 1.2034232284723767 0.7907054051593443 0.4991593906910219 0.30275547453758134 0.17643022368343347 0.09878299405312299 0.053139762179825314 0.027465356997214266 0.013638892648201145 0.006507305474754297 0.002982987947026769 0.0013138023168804537 5.55951324165014E-4 2.260329406981056E-4 8.8294758344622E-5 3.313800277713885E-5 1.1949396128877693E-5 4.1399377187851705E-6 1.378065554894573E-6 4.407315777651242E-7 1.354274432773538E-7 3.9982266684865815E-8 1.1341130933749797E-8 3.0908187484083245E-9 8.093175016375902E-10 2.0360692602792226E-10 4.921464795826677E-11 1.1429426503964358E-11
8.892161745938635 8.716085146198127 8.208499862389877 7.4273578214333895 6.457034689316848 5.449258063872173 4.570882385627383 3.81438113769344 3.166718756372765 2.615509316305648 2.149138562411406 1.75684695834372 1.428778195798346 1.1559979540793681 0.93048780498652 0.7451190629653901 0.5936111254677797 0.47047847427656303 0.37097005358836277 0.2910042395903163 0.2271020990184319 0.17632112533154662 0.13619115980005683 0.10465376483484087 0.08000592726183148 0.06084863472766726 0.04604059020255391 0.08087667511241124 0.1503439192977573 0.26852001769538214 0.4607821929992749 0.7597014027577577 1.2034232284723767 1.831563888873417 2.6782676492638178 3.7628256807176226 5.079283386489853 6.587475442640296 8.208499862389877 9.827358560436156 11.304153064044986 12.493021219858248 13.265546508012175 13.53352832366127 13.265546508012175 12.493021219858248 11.304153064044986 9.827358560436156 8.208499862389877 6.587475442640296 5.079283386489853 3.7628256807176226 2.6782676492638178 1.831563888873417 1.2034232284723767 0.7597014027577577 0.4607821929992749 0.26852001769538214 0.1503439192977573 0.08087667511241124 0.04180121746110127 0.020757870271771763 0.009903868763242701 0.004539992976248479 0.0019995566179747334 8.461365421744255E-4 3.4401344604594253E-4 1.3438122776315224E-4 5.043476625678885E-5 1.818652152100997E-5 6.300826050646546E-6 2.0973627956717965E-6 6.707765177056668E-7 2.06115362243856E-7 6.085147280085755E-8 1.7260765278404357E-8 4.704107310462815E-9 1.231750123781735E-9 3.0988191387218185E-10 7.490280216578644E-11 1.7395147741802464E-11
13.53352832366127 13.265546508012175 12.493021219858248 11.304153064044986 9.831411915115948 8.401128669811186 7.142014848832493 6.040393477221774 5.082426183163767 4.254399785731881 3.5429651885582483 2.935329376091971 2.4194027240243208 1.9839049376118523 1.618433726044173 1.3135008262449706 1.0605402344238644 0.851893524217878 0.6807769662443871 0.5412348564184779 0.4280830494577917 0.3368462166875731 0.26369183642636895 0.20536340869839226 0.1591148861805618 0.122647847124195 0.09405251533267436 0.11826471566155732 0.2198455963042534 0.3926526838305625 0.6737946999085469 1.110899653824231 1.7597472415623396 2.6782676492638178 3.9163895098987074 5.502322005640725 7.4273578214333895 9.6327638230493 12.003162851145674 14.370394977770298 16.529888822158657 18.26835240527347 19.398004229089185 19.789869908361467 19.398004229089185 18.26835240527347 16.529888822158657 14.370394977770298 12.003162851145674 9.6327638230493 7.4273578214333895 5.502322005640725 3.9163895098987074 2.6782676492638178 1.7597472415623396 1.110899653824231 0.6737946999085469 0.3926526838305625 0.2198455963042534 0.11826471566155732 0.06112527611295737 0.030353913807886636 0.01448227466826878 0.006638761765307788 0.0029239208281656767 0.0012372924261788228 5.030455607111461E-4 1.965035984673079E-4 7.374998146901935E-5 2.659387015558673E-5 9.213600834566143E-6 3.066941294563569E-6 9.808661647953488E-7 3.0139931785484317E-7 8.898217092106947E-8 2.5240151068452096E-8 6.87874362713457E-9 1.8011692240397211E-9 4.5313554719967633E-10 1.0952921331247064E-10 2.5436656473769176E-11
19.789869908361467 19.398004229089185 18.26835240527347 16.529888822158657 14.443171356535462 12.508486067754522 10.77725858224264 9.237899342160295 7.877701435924131 6.683241843098424 5.6407416033005715 4.736380700615711 3.9565655814617697 3.2881491075042812 2.718604343449058 2.2361548697419265 1.8298652878308244 1.4896962615136842 1.2065288350826 0.9721629195439743 0.7792947799905917 0.6214781308882791 0.4930730925152174 0.3891868200729517 0.30560912259467865 0.23874587262440236 0.185552495404073 0.1661557273173933 0.308871540823677 0.5516564420760778 0.9466462401710334 1.5607557919982848 2.4723526470339383 3.7628256807176226 5.502322005640725 7.730474044329972 10.435048475476501 13.53352832366127 16.863814726859555 20.189651799465537 23.22362747297589 25.66607769535559 27.253179303401264 27.803730045319412 27.253179303401264 25.66607769535559 23.22362747297589 20.189651799465537 16.863814726859555 13.53352832366127 10.435048475476501 7.730474044329972 5.502322005640725 3.7628256807176226 2.4723526470339383 1.5607557919982848 0.9466462401710334 0.5516564420760778 0.308871540823677 0.1661557273173933 0.08587780939743375 0.042645658068565434 0.02034683690106439 0.009327112346494885 0.004107955522530075 0.00173833101298252 7.067526484648328E-4 2.760772572037196E-4 1.0361485876900842E-4 3.736299379885256E-5 1.2944626292938417E-5 4.308891782197059E-6 1.378065554894573E-6 4.234502454176725E-7 1.250152866386744E-7 3.5461089429082884E-8 9.664274285047388E-9 2.5305483615119127E-9 6.366316952369053E-10 1.5390233075583855E-10 3.5800991913101406E-11
27.803730045319412 27.253179303401264 25.66607769535559 23.22362747297589 20.491610260945908 17.986170835193512 15.705895719053292 13.644199904191856 11.792199189531148 10.13918174745939 8.673060543627486 7.380796253306548 6.248782725338156 5.263189418387676 4.410257477107372 3.676548151602336 3.049144037038414 2.5158050868969672 2.065082518171257 1.6863945816654715 1.3700687316066777 1.1073550230791307 0.8904156280878703 0.7122952306654362 0.5668767793929145 0.44882668238754464 0.3535330629960648 0.277040187910236 0.41693296979041133 0.744658307092434 1.2778387649535765 2.1067999523041445 3.337326996032607 5.079283386489853 7.4273578214333895 10.435048475476501 14.0858420921045 18.26835240527347 22.763768838381278 27.253179303401264 31.348618088260526 34.64558103300575 36.78794411714422 37.531109885139955 36.78794411714422 34.64558103300575 31.348618088260526 27.253179303401264 22.763768838381278 18.26835240527347 14.0858420921045 10.435048475476501 7.4273578214333895 5.079283386489853 3.337326996032607 2.1067999523041445 1.2778387649535765 0.744658307092434 0.41693296979041133 0.2242867719485806 0.11592291739045918 0.05756561714872758 0.027465356997214266 0.01259028475016699 0.005545159943217707 0.002346501428356972 9.540162873079269E-4 3.7266531720786734E-4 1.3986542970508976E-4 5.043476625678885E-5 1.747341781230281E-5 5.8163955230905655E-6 1.8601939266915526E-6 5.715980433472658E-7 1.6875298575085278E-7 4.789822130776733E-8 1.3086852608590273E-8 3.442014666084918E-9 8.714689182076745E-10 2.1239914700332999E-10 4.9832802848973693E-11
37.531109885139955 36.78794411714422 34.64558103300575 31.400369819130702 28.077372432022447 24.976957282729444 22.104666557673262 19.46210331742411 17.047352758709795 14.85543902168244 12.878800109317146 11.107764994391808 9.531018922214024 8.136045137517348 6.9095336389106174 5.8377499713343255 4.906859398829093 4.103203967958399 3.4135319085214553 2.825180475932776 2.3262146923575737 1.9055254834171313 1.5528914419968558 1.2590089012887975 1.015495196205673 0.8148699726515541 0.6505192081450761 0.516646276000525 0.5407329126440966 0.9657697627537771 1.6572675401761259 2.7323722447292553 4.32827979019659 6.587475442640296 9.6327638230493 13.53352832366127 18.26835240527347 23.692775868212184 29.523016692401427 35.34546819587803 40.65696597405991 44.932896411722155 47.71139155210344 48.67522559599717 47.71139155210344 44.932896411722155 40.65696597405991 35.34546819587803 29.523016692401427 23.692775868212184 18.26835240527347 13.53352832366127 9.6327638230493 6.587475442640296 4.32827979019659 2.7323722447292553 1.6572675401761259 0.9657697627537771 0.5407329126440966 0.29088426258125877 0.1503439192977573 0.07465858083766795 0.035620647830703414 0.016328719092180814 0.007191684765732906 0.003043248300840364 0.0012372924261788228 4.8332086214372753E-4 1.8139568386896777E-4 6.541036577238509E-5 2.266341875180495E-5 7.555192429768955E-6 2.4245286340267575E-6 7.489809733282614E-7 2.2272857238386995E-7 6.375918570953645E-8 1.7569980148383835E-8 4.66081065484553E-9 1.1901818683916939E-9 2.9256803841178165E-10 6.923124000840454E-11
48.67522559599717 47.71139155210344 44.932896411722155 40.99789407874177 37.153838612119614 33.49709925844849 30.04499102850659 26.810093330139928 23.800492374373412 21.02010717893687 18.46908071240029 16.144217541125606 14.039449899965414 12.146315297439859 10.454430460680179 8.951948489501419 7.625988386602513 6.4630285326496315 5.449258063872173 4.570882385627383 3.81438113769344 3.166718756372765 2.615509316305648 2.149138562411406 1.75684695834372 1.4287781957983423 1.1559979540793681 0.93048780498652 0.7451190629653901 1.2034232284723767 2.065082518171257 3.404745473459935 5.393368730035602 8.208499862389877 12.003162851145674 16.863814726859555 22.763768838381278 29.523016692401427 36.78794411714422 44.04316545059993 50.66169923655897 55.989836656540206 59.452054797019436 60.653065971263345 59.452054797019436 55.989836656540206 50.66169923655897 44.04316545059993 36.78794411714422 29.523016692401427 22.763768838381278 16.863814726859555 12.003162851145674 8.208499862389877 5.393368730035602 3.404745473459935 2.065082518171257 1.2034232284723767 0.6737946999085469 0.3624641108965754 0.18734005942224272 0.09303032032049485 0.04438606039028746 0.02034683690106439 0.008961391040299537 0.0037921208930767657 0.0015425439956215042 6.039814896849027E-4 2.276519520788403E-4 8.260014482717265E-5 2.8850405344404926E-5 9.700289823534768E-6 3.139635142304162E-6 9.782172867229257E-7 2.933953087230924E-7 8.470960914071191E-8 2.3543654220086018E-8 6.299074488606236E-9 1.6223378392416202E-9 4.0222358434484114E-10 9.599651043494671E-11
60.653065971263345 59.452054797019436 55.995609102192745 51.69579127642344 47.48077181370403 43.385211734539844 39.43910413529327 35.66758706196681 32.090891880842705 28.724416366809063 25.578908473061485 22.66074434595638 19.97228262740324 17.512276420878255 15.276324423574778 13.25734355258487 11.446046800561188 9.831411915115948 8.401128669811186 7.142014848832493 6.040393477221774 5.082426183163767 4.254399785731881 3.5429651885582483 2.935329376091971 2.419402724024311 1.9839049376118523 1.618433726044173 1.3135008262449706 1.4407591843112353 2.4723526470339383 4.07622039783662 6.457034689316848 9.827358560436156 14.370394977770298 20.189651799465537 27.253179303401264 35.34546819587803 44.04316545059993 52.729242404304856 60.653065971263345 67.03200460356393 71.17703227626097 72.6149037073691 71.17703227626097 67.03200460356393 60.653065971263345 52.729242404304856 44.04316545059993 35.34546819587803 27.253179303401264 20.189651799465537 14.370394977770298 9.827358560436156 6.457034689316848 4.07622039783662 2.4723526470339383 1.4407591843112353 0.8066787139099616 0.43394832707388964 0.2242867719485806 0.11138104783067532 0.05321102816268667 0.024471110739218375 0.0108334652472433 0.004616818345466499 0.0018939994997350302 7.479604139323827E-4 2.8434071228436485E-4 1.0405457054351057E-4 3.6655990192186526E-5 1.243055245490212E-5 4.057864919164456E-6 1.2751651104461474E-6 3.8574200868346177E-7 1.1232828653154789E-7 3.14878502289337E-8 8.49686206895748E-9 2.2071701090714416E-9 5.519182108493715E-10 1.3285421039667893E-10
72.6149037073691 71.17703227626097 67.2812453999569 62.95289075196953 58.60014648344711 54.26790980464927 49.997565272845215 45.82642581718985 41.7873167477661 37.908303810339866 34.21256131000666 30.718371863427507 27.439245598108087 24.384143697329904 21.557789140895185 18.961046317634423 16.591350845839546 14.443171356535462 12.508486067754522 10.77725858224264 9.237899342160295 7.877701435924131 6.683241843098424 5.6407416033005715 4.736380700615711 3.956565581461758 3.2881491075042812 2.718604343449058 2.2361548697419265 1.8298652878308244 2.843882471418451 4.688769521998851 7.4273578214333895 11.304153064044986 16.529888822158657 23.22362747297589 31.348618088260526 40.65696597405991 50.66169923655897 60.653065971263345 69.76763260710311 77.10515858035663 81.87307530779819 83.5270211411272 81.87307530779819 77.10515858035663 69.76763260710311 60.653065971263345 50.66169923655897 40.65696597405991 31.348618088260526 23.22362747297589 16.529888822158657 11.304153064044986 7.4273578214333895 4.688769521998851 2.843882471418451 1.657911647147316 0.9302885941911726 0.5024995653921434 0.26128553353352607 0.1307846335850813 0.06301729471673718 0.02922970760997462 0.01305121268847417 0.005609691053636626 0.0023210724708350723 9.244855725099067E-4 3.544649154720936E-4 1.3083021460855182E-4 4.648411129197776E-5 1.5898739415632895E-5 5.234588304542271E-6 1.6590674783229765E-6 5.061826443624106E-7 1.4866616236019475E-7 4.203186801036246E-8 1.1439497110426018E-8 2.9970697798862715E-9 7.558723459127156E-10 1.8351084675762512E-10
83.5270211411272 81.87307530779819 78.07300986418618 74.03601243009682 69.84679541863409 65.5558299184169 61.21213435995254 56.862388016111666 52.55015905907791 48.315262550436074 44.19325819141178 40.21509211580083 36.406881714133995 32.789837648579415 29.380313028457195 26.18996629442094 23.226021784791158 20.491610260945908 17.986170835193512 15.705895719053292 13.644199904191856 11.792199189531148 10.13918174745939 8.673060543627486 7.380796253306548 6.248782725338139 5.263189418387676 4.410257477107372 3.676548151602336 3.049144037038414 3.1429762018367717 5.1818917172725865 8.208499862389877 12.493021219858248 18.26835240527347 25.66607769535559 34.64558103300575 44.932896411722155 55.989836656540206 67.03200460356393 77.10515858035663 85.21437889662113 90.48374180359595 92.31163463866358 90.48374180359595 85.21437889662113 77.10515858035663 67.03200460356393 55.989836656540206 44.932896411722155 34.64558103300575 25.66607769535559 18.268497277794015 12.507295784717218 8.243007533481023 5.229614225522637 3.193855697636281 1.8776844411391092 1.0626533248577488 0.5789249722964774 0.3036090004950231 0.15327406693810283 0.07448767184417696 0.034846711523166415 0.015692815912894686 0.006803018323987775 0.002838991430806665 0.0011404813899317582 4.410359634899515E-4 1.641804670501459E-4 5.883430794182203E-5 2.0295581179339773E-5 6.739598352836147E-6 2.1544093199651603E-6 6.629550806670874E-7 1.9638199505165622E-7 5.599908264239815E-8 1.537169780045158E-8 4.061855258404489E-9 1.0332103062552702E-9 2.5299660657879593E-10
92.31163463866358 90.56773475061094 87.49327546357095 84.08861783000978 80.40093906994773 76.47973900082332 72.37574409284784 68.13983144451122 63.82200399155915 59.47044487414157 55.130674567128736 50.844829372991555 46.65107445007051 42.58315897053444 38.67011553009926 34.93610079989443 31.400369819130702 28.077372432022447 24.976957282729444 22.104666557673262 19.46210331742411 17.047352758709795 14.85543902168244 12.878800109317146 11.107764994391808 9.531018922213994 8.136045137517348 6.9095336389106174 5.8377499713343255 4.906859398829093 4.103203967958399 5.502322005640725 8.716085146198127 13.265546508012175 19.398004229089185 27.253179303401264 36.78794411714422 47.71139155210344 59.452054797019436 71.17703227626097 81.87307530779819 90.48374180359595 96.07894391523232 98.01986733067552 96.07894391523232 90.48374180359595 81.87307530779819 71.17703227626097 59.46903005088716 47.820863437938165 37.01737784445518 27.583893723932633 19.786417575600012 13.662823247783983 9.081872701118689 5.811283339289485 3.579565978170517 2.1225130691455316 1.2115240919535997 0.6656951868978925 0.3521117027415357 0.1792863321132592 0.08787707354083707 0.0414634723757142 0.018832910112730316 0.008234379490924522 0.0034658199956045807 0.0014042447481735258 5.476981752530378E-4 2.056370950335625E-4 7.432301287672368E-5 2.5858708679766423E-5 8.660680966195882E-6 2.7922797608240294E-6 8.666175834894818E-7 2.5891531799532226E-7 7.446456792227818E-8 2.0615946719332606E-8 5.494378484129483E-9 1.4095988697857208E-9 8.093175016375902E-10
98.01986733067552 96.7149627432963 94.69243408682718 92.235532718294 89.38046488854722 86.168459066256 82.64477709993757 78.85765665808518 74.8572193504312 70.69437882223227 66.4197816318252 62.08281099546231 57.730679694869146 53.407633818025225 49.15428379731353 45.007073689832815 40.99789407874177 37.153838612119614 33.49709925844849 30.04499102850659 26.810093330139928 23.800492374373412 21.02010717893687 18.46908071240029 16.144217541125606 14.039449899965376 12.146315297439859 10.454430460680179 8.951948489501419 7.625988386602513 6.4630285326496315 5.613476283413374 8.892161745938635 13.53352832366127 19.789869908361467 27.803730045319412 37.531109885139955 48.67522559599717 60.653065971263345 72.6149037073691 83.5270211411272 92.31163463866358 98.01986733067552 100.0 98.1139680136879 92.66662817271913 84.25148449198748 73.73835471010865 62.12565848323389 50.38604232245801 39.337899792585695 29.56472016351139 21.389373099142915 14.896492414103141 9.98692213761922 6.445268119834663 4.0041652604572295 2.394664515361759 1.3786024453915466 0.7640030470322415 0.40757995514733647 0.20931108266841483 0.10347449402161464 0.04924204482493447 0.022557996620466723 0.009947791079328281 0.004222935660363222 0.0017256946550189198 6.788520341173476E-4 2.570679733754766E-4 9.37092591087632E-5 3.28835514173529E-5 1.1108018807457378E-5 3.6120701659710735E-6 1.1306740638377885E-6 3.407064556683793E-7 9.882913073158839E-8 2.7596326128961447E-8 7.41787041741589E-9 4.704107310462815E-9 3.0908187484083245E-9
100.0 99.74259988489968 98.97436801154439 97.70710799712542 95.96015685773905 93.75989409520204 91.13907903474502 88.13603967500339 84.79374110754104 81.15876511393965 77.28023472451883 73.20871826711839 68.9951467639755 64.68977653673264 60.34122570381185 55.995609102192745 51.69579127642344 47.48077181370403 43.385211734539844 39.43910413529327 35.66758706196681 32.090891880842705 28.724416366809063 25.578908473061485 22.66074434595638 19.972282627403192 17.512276420878255 15.276324423574778 13.25734355258487 11.446046800561188 9.827358560436156 8.208499862389877 8.716085146198127 13.265546508012175 19.398004229089185 27.253179303401264 36.78794411714422 47.71139155210344 59.452054797019436 71.19114490281856 82.03945752029671 91.00835468960739 97.18548948332507 99.90409043185447 98.86140865886918 94.17421286675696 86.35726589051698 76.23026847302688 64.77653229770826 52.987035354148496 41.72373974638147 31.62703759100217 23.077857221648628 16.210414872727373 10.961108028866406 7.134712320504853 4.470541754481755 2.696531667046486 1.5657145036145181 0.8751475971431518 0.4708815943447477 0.2438955105101287 0.12160672075518665 0.05836776035026242 0.02696808828570976 0.01199468849649816 0.005135579619160916 0.002116662618424248 8.397992716590024E-4 3.2074583656377273E-4 1.1792564008294035E-4 4.1736606723749754E-5 1.4219610889141602E-5 4.663585765223504E-6 1.4723596397721496E-6 4.4747576640614666E-7 1.3091421846096708E-7 3.686937661509171E-8 2.5240151068452096E-8 1.7260765278404357E-8 1.1341130933749797E-8
98.2728216868097 99.34237804573 99.90725952543005 99.95877138792693 99.49611912114977 98.52642882801727 97.06456460405406 95.13274944449029 92.76000319330969 89.98141740003909 86.83729240222523 83.37216626941016 79.63376825687256 75.67193102343585 71.53749604001486 67.2812453999569 62.95289075196953 58.60014648344711 54.26790980464927 49.997565272845215 45.82642581718985 41.7873167477661 37.908303810339866 34.21256131000666 30.718371863427507 27.439245598108037 24.384143697329904 21.557789140895185 18.961046317634423 16.591350845839546 14.370394977770298 12.003162851145674 9.6327638230493 12.493021219858248 18.26835240527347 25.686439517132477 34.76695652016627 45.299261287764146 56.8168622284 68.60014787554525 79.7323452217097 89.20839082625878 96.08122972221443 99.61691329332295 99.42355524632802 95.52282930714856 88.34597059534097 78.65530070998456 67.41102419211494 55.6154602606409 44.169433199861444 33.768346632239286 24.851891481642674 17.606408753643354 12.007256618105123 7.882763282071095 4.981668883404132 3.0306299530125984 1.774813179074692 1.000539086199239 0.5429716488588645 0.28364943870427173 0.14264231672257704 0.06905204096581376 0.03217854001082482 0.014435034696579746 0.006233486295326741 0.0025912294224233563 0.0010369132020012777 3.994299463881443E-4 1.48115503933289E-4 5.2871556922500523E-5 1.8167926265833447E-5 6.0096654806329974E-6 1.913625362612277E-6 5.865772549302551E-7 1.7308331307329203E-7 1.250152866386744E-7 8.898217092106947E-8 6.085147280085755E-8 3.9982266684865815E-8
93.26822337263756 95.55540807054118 97.3953466082103 98.76032538579825 99.62955383047483 99.98969125303732 99.83518751158572 99.16842532441524 97.99965913214271 96.34675270152823 94.23472485498341 91.69511947054397 88.76522192142066 85.48714914741375 81.90684436292189 78.07300986418618 74.03601243009682 69.84679541863409 65.5558299184169 61.21213435995254 56.862388016111666 52.55015905907791 48.315262550436074 44.19325819141178 40.21509211580083 36.406881714133924 32.789837648579415 29.380313028457195 26.18996629442094 23.226021784791158 20.189651799465537 16.863814726859555 13.53352832366127 11.42754477176236 16.83468597458654 23.8736481154058 32.59074118017896 42.82835232623567 54.17889916065716 65.97671175367662 77.34154391188338 87.2763727205266 94.8073963013097 99.14011799883573 99.79719245162326 96.70499264251204 90.20718889008818 81.00187699209778 70.01816040564387 58.2623490133991 46.66883557468225 35.98550651303521 26.710988189367935 19.085958318631228 13.128033225069263 8.692546922891257 5.540591107240899 3.3995923082425037 2.007979412172314 1.141703556142186 0.6248979965333621 0.32925061223359675 0.16699586992916637 0.08153546459569783 0.038322077980827034 0.01733856818836353 0.007551601979700962 0.0031661146181236224 0.0012778381638288492 4.964628506884092E-4 1.856775252576337E-4 6.684879789565789E-5 2.3168053385519224E-5 7.729424669028626E-6 2.4823697650210814E-6 7.674453471325937E-7 5.715980433472658E-7 4.234502454176725E-7 3.0139931785484317E-7 2.06115362243856E-7 1.354274432773538E-7
85.48714914741367 88.7652219214206 91.69511947054397 94.23472485498345 96.34675270152823 97.99965913214271 99.16842532441522 99.83518751158572 99.98969125303732 99.62955383047483 98.76032538579824 97.3953466082103 95.55540807054122 93.26822337263762 90.56773475061094 87.49327546357095 84.08861783000978 80.40093906994773 76.47973900082332 72.37574409284784 68.13983144451122 63.82200399155915 59.47044487414157 55.130674567128736 50.844829372991555 46.65107445007043 42.58315897053444 38.67011553009926 34.93610079989443 31.348618088260526 27.253179303401264 22.763768838381278 18.26835240527347 14.0858420921045 15.48366458749186 22.146250476189845 30.49217057137252 40.4145878240252 51.564361889956025 63.33194441225572 74.87859321726638 85.22248850172517 93.37108959736392 98.47643603229794 99.98017642983993 97.71408179057246 91.93102287017719 83.2585244202623 72.58669245391 60.9181892240675 49.2151308501599 38.274716542783324 28.654115187671458 20.650173368346476 14.325905507112452 9.567140298445706 6.150407392994311 3.806162315268649 2.267422264094099 1.300286904889244 0.7178069373455209 0.3814501536905797 0.19513250396409454 0.09609109031074926 0.04555104086494477 0.020786203259636732 0.009130902694114242 0.0038611256953079726 0.0015717224102899292 6.158847230942879E-4 2.323189831242081E-4 8.43590431247984E-5 2.9487657406954467E-5 9.92225947134622E-6 3.213975544737257E-6 2.4125414705592214E-6 1.8601939266915526E-6 1.378065554894573E-6 9.808661647953488E-7 6.707765177056668E-7 4.407315777651242E-7
75.67193102343577 79.63376825687247 83.37216626941016 86.83729240222529 89.98141740003909 92.76000319330969 95.13274944449024 97.06456460405403 98.52642882801727 99.49611912114977 99.95877138792693 99.90725952543005 99.34237804573002 98.27282168680973 96.7149627432963 94.69243408682718 92.235532718294 89.38046488854722 86.168459066256 82.64477709993757 78.85765665808518 74.8572193504312 70.69437882223227 66.4197816318252 62.08281099546231 57.73067969486906 53.407633818025225 49.15428379731353 45.007073689832815 40.65696597405991 35.34546819587803 29.523016692401427 23.692775868212184 18.26835240527347 14.21376171388722 20.504452008818173 28.474033001394954 38.06374203776729 48.981903597854334 60.67663914920188 72.35508465668765 83.05738909554992 91.78023689780443 97.62965488346818 99.97145530395699 98.54440118756442 93.50817388579901 85.41396390125588 75.10517439088619 63.57297289082684 51.80084730488086 40.63150289384366 30.679663353094323 22.299748936045642 15.60310523670167 10.509541807210992 6.814252263006967 4.2531853802445845 2.555477715178087 1.4780582987273525 0.8229485998535547 0.4410781430957826 0.22757263852728943 0.11302804933970775 0.05403984573630969 0.024871595680061632 0.011019322101479776 0.0046996745813152425 0.0019294893103717536 7.625681230929913E-4 2.9011928426482666E-4 1.0625178338729654E-4 3.7459117314569885E-5 1.2712779990910332E-5 9.39972791789601E-6 7.543458349844266E-6 5.8163955230905655E-6 4.308891782197059E-6 3.066941294563569E-6 2.0973627956717965E-6 1.378065554894573E-6
64.68977653673255 68.99514676397543 73.20871826711839 77.28023472451892 81.15876511393965 84.79374110754104 88.13603967500335 91.13907903474498 93.75989409520204 95.96015685773905 97.70710799712545 98.97436801154439 99.74259988489966 100.0 99.74259988489968 98.97436801154439 97.70710799712542 95.96015685773905 93.75989409520204 91.13907903474502 88.13603967500339 84.79374110754104 81.15876511393965 77.28023472451883 73.20871826711839 68.99514676397543 64.68977653673264 60.34122570381185 55.989836656540206 50.66169923655897 44.04316545059993 36.78794411714422 29.523016692401427 22.763768838381278 16.863814726859555 18.94796906066739 26.5384875174065 35.78090733871607 46.43957227405579 58.0212062211359 69.78257255763866 80.79209666007412 90.0435195764693 96.60458204771848 99.77107923620649 99.1912343256226 94.93002594254459 87.45720320044008 77.56204490643181 66.21625227087473 54.41788058597796 43.050711180922136 32.78541742917162 24.034925774350295 16.961588916307015 11.522639160965703 7.535274379860825 4.743597812125635 2.8746060136119396 1.6769128004859357 0.941682089502888 0.5090492726390634 0.26489698331263145 0.13269540496585083 0.06398769060936504 0.029702887389284824 0.013272800955535098 0.005709369817785754 0.00236415228850332 9.423764022260825E-4 3.6160550793621786E-4 1.3356951586023663E-4 4.7494284240695904E-5 3.3807434839047335E-5 2.8238343245283883E-5 2.266180127765712E-5 1.747341781230281E-5 1.2944626292938417E-5 9.213600834566143E-6 6.300826050646546E-6 4.1399377187851705E-6
53.40763381802515 57.73067969486906 62.08281099546231 66.41978163182529 70.69437882223227 74.8572193504312 78.8576566580851 82.6447770999375 86.168459066256 89.38046488854722 92.23553271829404 94.69243408682718 96.71496274329625 98.2728216868097 99.34237804573 99.90725952543005 99.95877138792693 99.49611912114977 98.52642882801727 97.06456460405406 95.13274944449029 92.76000319330969 89.98141740003909 86.83729240222523 83.37216626941016 79.63376825687247 75.67193102343585 71.53749604001486 67.03200460356393 60.653065971263345 52.729242404304856 44.04316545059993 35.34546819587803 27.253179303401264 20.189651799465537 17.47606724389019 24.687089531829244 33.570495963013926 43.94478087279552 55.375610777864495 67.17248824024036 78.43791174824135 88.17029427553818 95.40699956791721 99.38019994750836 99.65088837416621 96.18872401504689 89.37762970861729 79.94571347608573 68.83720254702284 57.05752423323753 45.52650529699405 34.968530781291136 25.855452172359367 18.402997597603473 12.609175281072346 8.316612656327152 5.2804136872824 3.227387419741687 1.8988730724212928 1.0754802770008032 0.5863685182128822 0.30775174243638886 0.15548628106039314 0.07562150428721413 0.0354046437439255 0.01595647020277777 0.006922693484174639 0.0028911795305788207 0.001162349407266809 4.4984201609399576E-4 1.6758880945119388E-4 1.122446365234345E-4 9.758079914099331E-5 8.150633472817838E-5 6.541036577238509E-5 5.043476625678885E-5 3.736299379885256E-5 2.659387015558673E-5 1.818652152100997E-5 1.1949396128877693E-5
42.58315897053437 46.65107445007043 50.844829372991555 55.1306745671288 59.47044487414157 63.82200399155915 68.13983144451115 72.37574409284775 76.47973900082332 80.40093906994773 84.08861783000985 87.49327546357095 90.56773475061088 93.26822337263756 95.55540807054118 97.3953466082103 98.76032538579825 99.62955383047483 99.98969125303732 99.83518751158572 99.16842532441524 97.99965913214271 96.34675270152823 94.23472485498341 91.69511947054397 88.7652219214206 85.48714914741375 81.90684436292189 77.10515858035663 69.76763260710311 60.653065971263345 50.66169923655897 40.65696597405991 31.348618088260526 23.22362747297589 16.529888822158657 22.92082031643553 31.436247979240413 41.504284916359055 52.74931762563835 64.5360583282702 76.00632028235479 86.17050909363296 94.04360971978548 98.80105969142251 99.92072929467983 97.27724627887748 91.16510183596138 82.24464969659803 71.42469084855358 59.71050768945001 48.052372904424786 37.22550465026221 27.760547665308604 19.928616316094725 13.771712327498836 9.161369912565773 5.866709399342455 3.6165161943177466 2.1460900065638873 1.22593411513599 0.6741367602241558 0.3568539997354626 0.1818422550494754 0.08919915259762752 0.04211999674948902 0.019145980393815043 0.00837777265913576 0.003528915121628664 0.0014309205960054232 5.58536471632218E-4 3.44521381482307E-4 3.112762382898642E-4 2.706105612412539E-4 2.260329406981056E-4 1.8139568386896777E-4 1.3986542970508976E-4 1.0361485876900842E-4 7.374998146901935E-5 5.043476625678885E-5 3.313800277713885E-5
32.78983764857937 36.406881714133924 40.21509211580083 44.19325819141185 48.315262550436074 52.55015905907791 56.86238801611159 61.212134359952465 65.5558299184169 69.84679541863409 74.0360124300969 78.07300986418618 81.9068443629218 85.48714914741367 88.7652219214206 91.69511947054397 94.23472485498345 96.34675270152823 97.99965913214271 99.16842532441522 99.83518751158572 99.98969125303732 99.62955383047483 98.76032538579824 97.3953466082103 95.55540807054118 93.26822337263762 90.48374180359595 85.21437889662113 77.10515858035663 67.03200460356393 55.989836656540206 44.932896411722155 34.64558103300575 25.66607769535559 18.26835240527347 21.24011977479815 29.38124501193119 39.12416741018462 50.151243141345404 61.88422796255146 73.50890139999093 84.05461582842503 92.52197255446654 98.03696983030521 99.99920698173283 98.18946933202099 92.81003793752502 84.44747486809415 73.96735108081646 62.36704172714547 50.62113791219274 39.552172459540714 29.74886921690189 21.539333593826054 15.012594113691907 10.07258413973697 6.505605815199784 4.0447926849079225 2.4208421306595187 1.394756362979519 0.773556276436126 0.4129972477469059 0.21225800653088805 0.10501290803107949 0.050013007301540686 0.022928990505326145 0.010119255924066624 0.004299063948943121 0.0017581701863410401 0.001000630581736138 9.172100256685613E-4 8.29381916075739E-4 7.210299990312847E-4 6.022548797247295E-4 4.8332086214372753E-4 3.7266531720786734E-4 2.760772572037196E-4 1.965035984673079E-4 1.3438122776315224E-4 8.8294758344622E-5
24.384143697329872 27.439245598108048 30.718371863427542 34.21256131000674 37.908303810339866 41.7873167477661 45.82642581718978 49.997565272845144 54.26790980464927 58.60014648344711 62.95289075196959 67.2812453999569 71.53749604001479 75.67193102343577 79.63376825687247 83.37216626941016 86.83729240222529 89.98141740003909 92.76000319330969 95.13274944449024 97.06456460405403 98.52642882801727 99.49611912114977 99.95877138792693 99.90725952543005 99.34237804573 98.27282168680973 96.07894391523232 90.48374180359595 81.87307530779819 71.17703227626097 59.452054797019436 47.71139155210344 36.78794411714422 27.253179303401264 19.398004229089185 19.644921901307278 27.407929213038575 36.809830845770364 47.58971455174303 59.22758959926132 70.95723718940133 81.83347935363639 90.85043611238632 97.09227930006149 99.88587009450566 98.92022555866711 94.30350168318373 86.54305482342531 76.45366391651827 65.01687111657075 53.2249801931273 41.943689698545064 31.818480464535405 23.235601500796776 16.333907207166863 11.05319746910777 7.20024798298894 4.5151133737151765 2.7255336350724013 1.583784587587827 0.8859360196301119 0.47705701505138465 0.24728620752590189 0.12339318723220169 0.059271258762645974 0.027406829588039437 0.01219930610177113 0.005227248398939788 0.0027722153792338997 0.0025511188364794415 0.0023468861322545336 0.0021232022938522145 0.0018458233995780567 0.0015417613011934367 0.0012372924261788228 9.540162873079269E-4 7.067526484648328E-4 5.030455607111461E-4 3.4401344604594253E-4 2.260329406981056E-4
17.512276420878226 19.972282627403214 22.660744345956406 25.578908473061567 28.724416366809024 32.09089188084266 35.66758706196674 39.4391041352932 43.385211734539844 47.48077181370403 51.695791276423506 55.995609102192745 60.34122570381177 64.68977653673255 68.99514676397543 73.20871826711839 77.28023472451892 81.15876511393965 84.79374110754104 88.13603967500335 91.13907903474498 93.75989409520204 95.96015685773905 97.70710799712545 98.97436801154439 99.74259988489968 100.0 98.01986733067552 92.31163463866358 83.5270211411272 72.6149037073691 60.653065971263345 48.67522559599717 37.531109885139955 27.803730045319412 19.789869908361467 18.134692342008545 25.518126937007356 34.565995987448126 45.07243668549324 56.576317976177315 68.36282527694715 79.51828522485197 89.03806020919302 95.97233338366983 99.58137038027701 99.46535188361078 95.63728281024349 88.52059295860496 78.87204120622475 67.64933425212598 55.85546270966282 44.39452986156206 33.96682461912096 25.017396799019448 17.73744106202767 12.106022988192102 7.953782366364093 5.0304587623691095 3.0626908654108864 1.7949833053880897 1.012696582838693 0.5499965379697394 0.2875426344561613 0.1447125576947161 0.07010869316369533 0.032696344808262286 0.014678721069031125 0.007326149384359324 0.006768433876285346 0.006251125518804301 0.005771462213521026 0.005222234967574471 0.004539992976248479 0.0037921208930767657 0.003043248300840364 0.002346501428356972 0.00173833101298252 0.0012372924261788228 8.461365421744255E-4 5.55951324165014E-4
12.146315297439843 14.039449899965394 16.144217541125634 18.46908071240036 21.020107178936946 23.800492374373395 26.810093330139896 30.04499102850656 33.49709925844849 37.153838612119614 40.99789407874185 45.007073689832815 49.154283797313454 53.40763381802515 57.73067969486906 62.08281099546231 66.41978163182529 70.69437882223227 74.8572193504312 78.8576566580851 82.6447770999375 86.168459066256 89.38046488854722 92.23553271829404 94.69243408682718 96.7149627432963 98.01986733067552 96.07894391523232 90.48374180359595 81.87307530779819 71.17703227626097 59.452054797019436 47.71139155210344 36.78794411714422 27.253179303401264 19.398004229089185 16.708467487692637 23.71307654921187 32.39670706789347 42.60646620285121 53.94011172549775 65.7369951608025 77.1204466061974 87.09453476634232 94.68342334024746 99.08745643192688 99.82172927375777 96.80397223923187 90.36972238648102 81.2109139781515 70.2534293462708 58.50356612381324 46.89848686846197 36.19070160342032 26.884183720919474 19.224647574708285 13.233709589953255 8.769331611545189 5.593878985094559 3.434957127478682 2.0304451186311376 1.1553747449607048 0.6328724134143824 0.33371147537220347 0.16939001133005732 0.08276869989501787 0.038931949405164715 0.018468013193984327 0.01712936628896897 0.0158825424504675 0.014721645703973272 0.013638892648201145 0.01234098040866794 0.010728732951170824 0.008961391040299537 0.007191684765732906 0.005545159943217707 0.004107955522530075 0.0029239208281656767 0.0019995566179747334 0.0013138023168804537
8.136045137517337 9.531018922214008 11.107764994391824 12.878800109317195 14.85543902168249 17.04735275870986 19.46210331742409 22.104666557673234 24.976957282729458 28.077372432022475 31.400369819130802 34.93610079989443 38.67011553009919 42.58315897053437 46.65107445007043 50.844829372991555 55.1306745671288 59.47044487414157 63.82200399155915 68.13983144451115 72.37574409284775 76.47973900082332 80.40093906994773 84.08861783000985 87.49327546357095 90.56773475061094 92.31163463866358 90.48374180359595 85.21437889662113 77.10515858035663 67.03200460356393 55.989836656540206 44.932896411722155 34.64558103300575 25.66607769535559 18.26835240527347 15.364894552127767 21.993459781709173 30.305342955706582 40.19819320993436 51.32814200459285 63.09082910562851 74.65151159111565 85.03009371474222 93.23272755369878 98.40695696310999 99.9873124623509 97.7970305921972 92.08059611991942 83.45882311970529 72.81788669301376 61.15973086813339 49.44868433011002 38.48624999519322 28.83487895497198 20.796600497101497 14.438705087017922 9.649966889104638 6.208477061126255 3.845085655727689 2.2923906969307066 1.3156274799225411 0.7268401601081698 0.3865507987387835 0.19789549828730602 0.09752746489835763 0.046267883804879346 0.04135137992914882 0.0384926166884528 0.03581974348778998 0.03332154395782692 0.030967103541862634 0.028020194012871213 0.024359586422561932 0.02034683690106439 0.016328719092180814 0.01259028475016699 0.009327112346494885 0.006638761765307788 0.004539992976248479 0.002982987947026769
5.263189418387667 6.248782725338151 7.380796253306558 8.673060543627521 10.139181747459434 11.792199189531201 13.644199904191836 15.70589571905327 17.986170835193537 20.491610260945937 23.22602178479124 26.189966294420913 29.380313028457167 32.78983764857937 36.406881714133924 40.21509211580083 44.19325819141185 48.315262550436074 52.55015905907791 56.86238801611159 61.212134359952465 65.5558299184169 69.84679541863409 74.0360124300969 78.07300986418618 81.87307530779819 83.5270211411272 81.87307530779819 77.10515858035663 69.76763260710311 60.653065971263345 50.66169923655897 40.65696597405991 31.348618088260526 23.749454612174546 20.768096219966715 18.052678728762018 20.35943604419973 28.294633806983814 37.85333007295936 48.74900840780189 60.435088323889566 72.12307195593598 82.85542553910892 91.62824497101779 97.54375382491243 99.9611494995948 98.6108492274167 93.64397419145834 85.60451176714277 75.33124639944934 63.813906550774256 52.03759194848192 40.84893431366187 30.86781942523087 22.45395518094989 15.723217869515057 10.598677891089814 6.877389720407607 4.295930603955984 2.58316745026364 1.4952353034205905 0.8331596055076832 0.4468981422281096 0.23075470946919097 0.11469758603999834 0.095221347346675 0.08898779588678071 0.08313505454359837 0.07764178842214924 0.07248772725202901 0.06755387751938452 0.06112527611295737 0.053139762179825314 0.04438606039028746 0.035620647830703414 0.027465356997214266 0.02034683690106439 0.01448227466826878 0.009903868763242701 0.006507305474754297
3.288149107504275 3.9565655814617626 4.73638070061572 5.640741603300601 6.683241843098456 7.877701435924163 9.23789934216028 10.777258582242624 12.508486067754538 14.443171356535483 16.591350845839596 18.961046317634395 21.557789140895167 24.384143697329872 27.439245598108048 30.718371863427542 34.21256131000674 37.908303810339866 41.7873167477661 45.82642581718978 52.729242404304856 60.653065971263345 67.03200460356393 71.17703227626097 72.6149037073691 71.17703227626097 72.6149037073691 71.17703227626097 67.03200460356393 60.653065971263345 52.729242404304856 44.12509168365019 39.849082834578475 35.77280203938115 31.92195698618856 28.31574395901616 24.967115188473326 21.883192109123307 26.366682671759907 35.576907163882545 46.210702315051705 57.78014507279268 69.54667433568937 80.58158155295557 89.87872169339799 96.5027451241144 99.74339086820956 99.2408029937078 95.0513066340187 87.6370183766726 77.78194088536232 66.45560846095823 54.657049259790504 43.273538149598586 32.98073345689381 24.19690916292748 17.08917743178948 11.618340605437428 7.603765763487528 4.790435927790327 2.905246738181572 1.6961048229089823 0.9532000057443359 0.5156761715277051 0.2685540905967345 0.20915788541909655 0.1962361748571328 0.18405240869880077 0.1725685100663476 0.1617481052210641 0.15155646349552232 0.14158857103468014 0.1281146370384212 0.11137751478448037 0.09303032032049485 0.07465858083766795 0.05756561714872758 0.042645658068565434 0.030353913807886636 0.020757870271771763 0.013638892648201145
1.983904937611848 2.419402724024315 2.9353293760919765 3.542965188558267 4.254399785731898 5.082426183163792 6.040393477221766 7.142014848832483 8.401128669811202 9.831411915115968 11.446046800561234 13.257343552584858 15.27632442357476 17.512276420878226 19.972282627403214 22.660744345956406 25.578908473061567 31.348618088260526 40.65696597405991 50.66169923655897 60.653065971263345 69.76763260710311 77.10515858035663 81.87307530779819 83.5270211411272 81.87307530779819 77.83047140802452 73.4629211997992 68.92688410943735 64.28520285081972 59.598497437853794 54.92391956883331 50.31409367654992 45.816267449170255 41.471684532939335 37.31518224318535 33.375007923535364 29.672839512972942 26.22398921578548 33.373275193512164 43.72057772839737 55.135921193410006 66.9337347489448 78.21988299941616 87.99357166201193 95.28979893331723 99.33528804178859 99.68329401019224 96.29481128188735 89.54576941166654 80.1583813596121 69.07398083302128 57.29829683934857 45.75416359074283 35.17071591654633 26.025164130248623 18.538194139007867 12.711683033269988 8.390741947042981 5.331622042715371 3.261219460677689 1.9202703491467639 1.088444795888248 0.5938983501965784 0.4382377321266781 0.4127844174255455 0.38868200076373105 0.36586694434559613 0.3442782012631926 0.32385714696959217 0.3045475109327662 0.28512436826796334 0.25799119720271807 0.2242867719485806 0.18734005942224272 0.1503439192977573 0.11592291739045918 0.08587780939743375 0.06112527611295737 0.04180121746110127 0.027465356997214266
1.155997954079366 1.4287781957983448 1.7568469583437247 2.1491385624114163 2.6155093163056633 3.1667187563727786 3.814381137693433 4.570882385627375 5.449258063872183 6.4630285326496395 7.625988386602546 8.951948489501401 10.45443046068016 12.146315297439843 14.039449899965394 18.26835240527347 25.66607769535559 34.64558103300575 44.932896411722155 55.989836656540206 67.03200460356393 77.10515858035663 85.21437889662113 90.48374180359595 92.31163463866358 90.52378771655323 87.19162119504158 83.48120472633065 79.4519540086144 75.1661622372464 70.68741356652313 66.07904004329093 61.402673210079016 56.71693485640035 52.07630302913591 47.530179931223294 43.12217830599644 38.889632877967784 34.86333391261158 31.246113722166264 41.28532954721103 52.511833512337915 64.29545732380524 75.7818280616922 85.98279244351504 93.91169820495385 98.73918150528404 99.93578589175104 97.36754540256094 91.32067055745225 82.4490473997088 71.65786641944023 59.95201499058128 48.28423733544115 37.43420790263615 27.937889830933198 20.07151864866808 13.881249060015548 9.241416420454875 5.922570159214362 3.6537898794500028 2.169894421566851 1.2404958580336733 0.8758725127346502 0.8282532023629027 0.7829660995005236 0.7399125639163012 0.6989972279195641 0.660127938001405 0.6232156945725489 0.588174590018336 0.5516564420760778 0.4991593906910219 0.43394832707388964 0.3624641108965754 0.29088426258125877 0.2242867719485806 0.1661557273173933 0.11826471566155732 0.08087667511241124 0.053139762179825314
0.6505192081450749 0.8148699726515557 1.0154951962056749 1.2590089012888055 1.552891441996864 1.9055254834171425 2.3262146923575697 2.8251804759327697 3.4135319085214646 4.1032039679584065 4.906859398829119 5.8377499713343175 6.909533638910605 8.716085146198127 13.265546508012175 19.398004229089185 27.253179303401264 36.78794411714422 47.71139155210344 59.452054797019436 71.17703227626097 81.87307530779819 90.48374180359595 96.07894391523232 98.01986733067552 96.63149267941333 94.41177128651758 91.69286079183453 88.52110360921446 84.94934534574224 81.03547324880455 76.84086213189802 72.42878580085984 67.86285090617613 63.20550646234311 58.51667631970052 53.85255408009021 49.26459082847014 44.79869616535878 40.49466293265051 38.91097913814241 49.91674641820752 61.64275799226476 73.27899983940573 83.85687716717946 92.37607761256729 97.95847839805782 99.9968279646638 98.26347023755787 92.95219536825182 84.64257868946066 74.1958818178948 62.608369838899335 50.856523818786734 39.766981538597776 29.93369051010729 21.690001443292864 15.129360737707797 10.158819776113072 6.566404218067019 4.085767524478012 2.4472670952653464 1.669812207646658 1.5852529055786835 1.5044823333992163 1.4273590572428432 1.353745376529027 1.2835073084844477 1.216514567526068 1.1526405398094848 1.0917622532421651 1.0254896296404015 0.9279013887064737 0.8066787139099616 0.6737946999085469 0.5407329126440966 0.41693296979041133 0.308871540823677 0.2198455963042534 0.1503439192977573 0.09878299405312299
0.35353306299606385 0.44882668238754553 0.5668767793929145 0.71229523066544 0.8904156280878768 1.1073550230791356 1.3700687316066753 1.68639458166547 2.0650825181712613 2.5158050868969717 3.049144037038432 3.676548151602331 5.613476283413374 8.892161745938635 13.53352832366127 19.789869908361467 27.803730045319412 37.531109885139955 48.67522559599717 60.653065971263345 72.6149037073691 83.5270211411272 92.31163463866358 98.01986733067552 100.0 99.70133185910458 98.81066894708177 97.34387689583413 95.3268753628834 92.79487620189046 89.79136118417227 86.36684073080252 82.57744313251492 78.48338922336995 74.14741021977105 69.63316639136714 65.00372151094827 60.32012290270605 55.64012976415908 51.01712376311299 46.499226252038206 47.35893181738546 58.98619382668615 70.72297630444145 81.62672369556927 90.69135314190308 96.99762007829015 99.86606914896748 98.97750761306075 94.43147026072808 86.72786791041952 76.67649789636245 65.25706664557596 53.46314559774109 42.16413038758953 32.01057446306163 23.394052968154146 16.45807928257384 11.145883816294171 7.266270374045199 4.560057050131111 3.036616664948874 2.8942070481753897 2.7575718109542917 2.6265258129877416 2.5008873173041635 2.3804780611194385 2.2651233177632975 2.1546519499791343 2.048896454910355 1.9476930010898206 1.831563888873417 1.6572675401761259 1.4407591843112353 1.2034232284723767 0.9657697627537771 0.744658307092434 0.5516564420760778 0.3926526838305625 0.26852001769538214 0.17643022368343347
0.18555249540407268 0.238745872624403 0.3056091225946795 0.3891868200729534 0.4930730925152204 0.6214781308882835 0.7792947799905896 0.9721629195439717 1.2065288350826022 1.4896962615136882 1.9448214745385404 3.337326996032607 5.502322005640725 8.716085146198127 13.265546508012175 19.398004229089185 27.253179303401264 36.78794411714422 47.71139155210344 59.452054797019436 71.17703227626097 81.87307530779819 90.48374180359595 96.07894391523232 98.31349842868171 99.42818976623474 99.95576200027924 99.88678979487611 99.22250725962893 97.97477121994642 96.16570919525819 93.82706668799501 90.9992806842834 87.7303171428162 84.07431914769205 80.09011889669316 75.8396705119362 71.38646168310655 66.79396043892531 62.12414910089995 57.43619105167884 52.785267802689496 56.33589859210024 68.1252431931188 79.30354212365361 88.86664533976285 95.86204004076095 99.5442613216662 99.50558787801808 95.75035479551455 88.6941537375056 79.0881245654553 67.88741004900407 56.0956111555898 44.62006596392321 34.1659272964585 25.183604900742985 17.86916513828806 12.205408182120319 8.025314005121038 5.267540886045078 5.040298305622668 4.821278001452009 4.610263160500039 4.4070387245385785 4.211391589107594 4.023110790609054 3.841987681695129 3.667816095132833 3.5003924963452713 3.339516124846257 3.1429762018367717 2.843882471418451 2.4723526470339383 2.065082518171257 1.6572675401761259 1.2778387649535765 0.9466462401710334 0.6737946999085469 0.4607821929992749 0.30275547453758134
0.09405251533267403 0.12264784712419544 0.15911488618056205 0.20536340869839387 0.2636918364263702 0.3368462166875755 0.4280830494577906 0.5412348564184764 0.6807769662443888 1.0254896296404015 1.831563888873417 3.1429762018367717 5.1818917172725865 8.208499862389877 12.493021219858248 18.26835240527347 25.66607769535559 34.64558103300575 44.932896411722155 55.989836656540206 67.03200460356393 77.10515858035663 85.21437889662113 90.48374180359595 93.42274029953307 95.83947061961057 97.73230240323491 99.06808629763336 99.82316538652837 99.98407206509044 99.54792759231566 98.52252775844572 96.92611110543197 94.78681932887449 92.14187216705812 89.0364905767495 85.52261171295189 81.6574466913696 77.50193698105605 73.11916737446792 68.57279280385276 63.92553296906015 59.2377831100387 65.4971107221386 76.8987616973723 86.91169719893372 94.55811274584892 99.03325211571475 99.8446885366086 96.90151623192185 90.53111285884967 81.41919906058884 70.48837083254335 58.74485019267733 47.128520762057484 36.39648948040992 27.058073105890884 19.364037500185503 13.340025034752673 8.846654256741479 8.3729498319775 8.040686364637454 7.719076836731094 7.407901754455684 7.106940383092388 6.815971080569572 6.53477161898498 6.263119493957367 6.000792221709352 5.747567623815707 5.503224099581748 5.1818917172725865 4.688769521998851 4.07622039783662 3.404745473459935 2.7323722447292553 2.1067999523041445 1.5607557919982848 1.110899653824231 0.7597014027577577 0.4991593906910219
0.04604059020255375 0.06084863472766742 0.08000592726183176 0.1046537648348417 0.1361911598000578 0.17632112533154803 0.22710209901843129 0.2910042395903158 0.4991593906910219 0.9279013887064737 1.6572675401761259 2.843882471418451 4.688769521998851 7.4273578214333895 11.304153064044986 16.529888822158657 23.22362747297589 31.348618088260526 40.65696597405991 50.66169923655897 60.653065971263345 69.76763260710311 77.10515858035663 81.96586903626569 85.80613779180779 89.29056700899577 92.36229739750877 94.96985889977628 97.06860277230103 98.6219723208478 99.6025617959985 99.99292060458332 99.78606986535995 98.98570994465456 97.60611034883499 95.67168655138899 93.21628128906777 90.28217988595554 86.9188996288291 83.18180159458228 79.13057922634599 74.82768112987324 70.3367259424635 65.72096480491803 74.42393822238267 84.83678771186855 93.09309403392237 98.3359672512681 99.99286306198734 97.87849740128601 92.22894992549824 83.65827681993423 73.04865871148404 61.401256370934476 49.68255815980196 38.698338755628846 29.016322851011054 20.943733738356848 14.552162024991441 13.267721366029752 12.791446986080068 12.328226830453193 11.87788636509225 11.440244969072436 11.015116389395494 10.602309188161357 10.201627181533969 9.812869869960045 9.435832859137683 9.070308271272435 8.716085146198127 8.208499862389877 7.4273578214333895 6.457034689316848 5.393368730035602 4.32827979019659 3.337326996032607 2.4723526470339383 1.7597472415623396 1.2034232284723767 0.7907054051593443
0.021765978802292966 0.029154701511051855 0.03885083574505773 0.051505487303085996 0.06793099939869496 0.0891340984407378 0.11635394612697779 0.2242867719485806 0.43394832707388964 0.8066787139099616 1.4407591843112353 2.4723526470339383 4.07622039783662 6.457034689316848 9.827358560436156 14.370394977770298 20.189651799465537 27.253179303401264 35.34546819587803 44.04316545059993 52.729242404304856 60.653065971263345 67.03200460356393 71.7347648654118 76.17463955568039 80.40685144468983 84.36797488491753 87.99623942809119 91.23311859040777 94.0248930149054 96.32413000059785 98.09102260620274 99.29453556404134 99.91331193211772 99.9363034806921 99.36309881566244 98.20393562281899 96.47939652379173 94.21980116843599 91.4643196498942 88.25984346171542 84.65965945109285 80.7219791097422 76.50837978324074 72.08221583305576 82.65264216349685 91.47505390421217 97.45638263559646 99.94925950700335 98.67577702038808 93.77848433884 85.79412397913885 75.55680052839844 64.05473737570351 52.27458947866413 41.066877931114036 31.05663686896603 22.608869196918306 20.054405885254578 19.4107284032668 18.78155186003592 18.166812045911158 17.566432877672273 16.98032688523731 16.408395700717662 15.850530548797643 15.306612737445036 14.776514147994266 14.260097723675011 13.757217955696003 13.265546508012175 12.493021219858248 11.304153064044986 9.827358560436156 8.208499862389877 6.587475442640296 5.079283386489853 3.7628256807176226 2.6782676492638178 1.831563888873417 1.2034232284723767
0.009937619716247778 0.013490660482508172 0.018219876140941175 0.02448042744740482 0.03272306248699675 0.04438606039028746 0.09303032032049485 0.18734005942224272 0.3624641108965754 0.6737946999085469 1.2034232284723767 2.065082518171257 3.404745473459935 5.393368730035602 8.208499862389877 12.003162851145674 16.863814726859555 22.763768838381278 29.523016692401427 36.78794411714422 44.04316545059993 50.66169923655897 55.99875610196223 60.680983539684696 65.36251617956003 69.98530071662204 74.48808744527886 78.80771466821783 82.8805383879489 86.6439639951758 90.03802966293209 93.00698620045455 95.50081559939365 97.47663067247962 98.89990114522395 99.74545725420619 99.99823010415841 99.65369835721603 98.71802275334332 97.20786286983886 95.14988373501491 92.5799727122549 89.54219878772305 86.08755642028197 82.2725439465635 80.37034025426814 89.71280252908993 96.39948660390824 99.71412866293714 99.28882165694147 95.17123280278652 87.81581045201338 78.00122314827526 66.69477205138213 54.89639840181234 43.49682856868636 33.176686860769586 28.914711494704488 28.096976965873566 27.29341858962937 26.5041502391842 25.729268663134956 24.968853855608895 24.22296944270431 23.491663084001964 22.774966887924364 22.072897839723495 21.385458240888436 20.71263615877247 20.054405885254578 19.398004229089185 18.26835240527347 16.529888822158657 14.370394977770298 12.003162851145674 9.6327638230493 7.4273578214333895 5.502322005640725 3.9163895098987074 2.6782676492638178 1.7597472415623396
0.004381808538263187 0.006028713948133773 0.00825196404576036 0.011237024944350494 0.016328719092180814 0.035620647830703414 0.07465858083766795 0.1503439192977573 0.29088426258125877 0.5407329126440966 0.9657697627537771 1.6572675401761259 2.7323722447292553 4.32827979019659 6.587475442640296 9.827358560436156 14.370394977770298 20.189651799465537 27.253179303401264 35.34546819587803 44.04316545059993 52.729242404304856 60.653065971263345 67.03200460356393 71.17703227626097 72.6149037073691 71.75108474146093 70.68864417198726 72.77444593851723 77.17205754598822 81.34730528089071 85.23700518641077 88.77999440905131 91.91871917008325 94.60078377857852 96.78040269333059 98.4196995252258 99.4898015314806 99.97168542526175 99.85673988355828 99.1470215133854 97.85519364564246 96.00415050171722 93.6263423179006 90.76282922336117 87.46210240916264 87.81581045201344 95.17123280278652 99.28882165694148 99.71412866293713 96.39948660390824 89.71280252908987 80.37034025426814 69.31047425919382 57.53917285988367 45.982231001153096 39.767064256238775 38.794750461296815 37.833803401043156 36.8845637441911 35.94735229813603 35.02247009188722 34.11019848890967 33.21079932889549 32.32451509744624 31.45156912261055 30.592165797186066 29.746490825668914 28.914711494704488 28.096976965873566 27.253179303401264 25.66607769535559 23.22362747297589 20.189651799465537 16.863814726859555 13.53352832366127 10.435048475476501 7.730474044329972 5.502322005640725 3.7628256807176226 2.4723526470339383
0.001865912495633062 0.0026018544324553205 0.0036094089084657164 0.005545159943217707 0.01259028475016699 0.028020194012871213 0.06112527611295737 0.1281146370384212 0.25799119720271807 0.4991593906910219 0.9279013887064737 1.6572675401761259 2.843882471418451 4.688769521998851 7.4273578214333895 11.304153064044986 16.529888822158657 23.22362747297589 31.348618088260526 40.65696597405991 50.66169923655897 60.653065971263345 69.76763260710311 77.10515858035663 81.87307530779819 83.5270211411272 82.73659351816688 81.80599372588446 80.85934547183953 79.89745152688616 78.92112014778377 77.93116395851179 79.77181016656746 83.77871985361925 87.46210240916258 90.76282922336117 93.6263423179006 96.00415050171722 97.85519364564246 99.1470215133854 99.85673988355828 99.97168542526175 99.4898015314806 98.4196995252258 96.78040269333059 94.60078377857855 91.9187191700833 93.77848433884 98.6757770203881 99.94925950700335 97.45638263559646 91.47505390421213 82.65264216349685 71.89066299779606 60.1935443980051 54.20925237580345 51.09541545962292 50.02621835863492 48.963338555622705 47.90733128365501 46.858733204970314 45.818062115424375 44.78581668594141 43.76247624066063 42.74850057139519 41.7443297879474 40.750384203749846 39.767064256238775 38.794750461296815 37.833803401043156 36.78794411714422 34.64558103300575 31.348618088260526 27.253179303401264 22.763768838381278 18.26835240527347 14.0858420921045 10.435048475476501 7.4273578214333895 5.079283386489853 3.337326996032607
7.673544234542951E-4 0.0010844465827306398 0.002346501428356972 0.005771462213521026 0.013638892648201145 0.030967103541862634 0.06755387751938452 0.14158857103468014 0.28512436826796334 0.5516564420760778 1.0254896296404015 1.831563888873417 3.1429762018367717 5.1818917172725865 8.208499862389877 12.493021219858248 18.26835240527347 25.66607769535559 34.64558103300575 44.932896411722155 55.989836656540206 67.03200460356393 77.10515858035663 85.21437889662113 90.48374180359595 92.31163463866358 91.69325986216815 90.98948555412107 90.26151414187231 89.51001458781258 88.73567343733859 87.93919377606278 87.12129416888104 86.28270758313363 85.4241802981095 84.54647080315634 86.08755642028197 89.54219878772305 92.5799727122549 95.14988373501494 97.20786286983886 98.71802275334332 99.65369835721603 99.99823010415841 99.74545725420619 98.89990114522395 97.47663067247962 95.50081559939365 97.87849740128604 99.99286306198734 98.3359672512681 93.09309403392233 84.83678771186855 74.48808744527878 69.98530071662204 65.36251617956003 63.097325447220356 62.0001868718624 60.902154188512526 59.80395676056772 58.70631107846814 57.609920060865015 56.5154723905409 55.42364188573672 54.33508690744997 53.25044980317622 52.17035638747095 51.09541545962292 50.02621835863492 48.963338555622705 47.71139155210344 44.932896411722155 40.65696597405991 35.34546819587803 29.523016692401427 23.692775868212184 18.26835240527347 13.53352832366127 9.6327638230493 6.587475442640296 4.32827979019659
3.652860495145929E-4 9.732886947188954E-4 0.0024916009731503217 0.006128349505322217 0.01448227466826878 0.03288200228140395 0.0717311760109315 0.1503439192977573 0.30275547453758134 0.5857689713335614 1.0889023668554452 1.9448214745385404 3.337326996032607 5.502322005640725 8.716085146198127 13.265546508012175 19.398004229089185 27.253179303401264 36.78794411714422 47.71139155210344 59.452054797019436 71.17703227626097 81.87307530779819 90.48374180359595 96.07894391523232 98.01986733067552 97.66698977413138 97.26753434121468 96.83795731511677 96.37867274804061 95.89012194413344 95.37277275300603 94.8271188233196 94.25367881810791 93.65299559357891 93.02563534321622 92.37218670906687 91.69325986216815 90.98948555412107 90.26151414187231 91.46431964989415 94.21980116843599 96.47939652379173 98.20393562281899 99.36309881566244 99.9363034806921 99.91331193211772 99.29453556404134 98.09102260620274 99.8446885366086 99.03325211571475 94.55811274584889 87.99623942809113 84.36797488491746 80.40685144468983 76.17463955568039 74.88771498054344 73.85143439600652 72.80561903769336 71.75108474146093 70.68864417198726 69.61910581090525 68.5432729665599 67.46194280700003 66.37590541774128 65.28594288575682 64.19282841106717 63.097325447220356 62.0001868718624 60.902154188512526 59.452054797019436 55.989836656540206 50.66169923655897 44.04316545059993 36.78794411714422 29.523016692401427 22.763768838381278 16.863814726859555 12.003162851145674 8.208499862389877 5.393368730035602
3.7266531720786734E-4 9.929504305851088E-4 0.002541934651619926 0.006252150377482029 0.014774836023203373 0.033546262790251205 0.0731802418880473 0.15338106793244638 0.308871540823677 0.5976022895005945 1.110899653824231 1.9841094744370291 3.404745473459935 5.613476283413374 8.892161745938635 13.53352832366127 19.789869908361467 27.803730045319412 37.531109885139955 48.67522559599717 60.653065971263345 72.6149037073691 83.5270211411272 92.31163463866358 98.01986733067552 100.0 99.98360790102842 99.93444772440648 99.85256780459369 99.73804861102064 99.591002616298 99.4115741121324 99.19993897337098 98.95630437071462 98.68090843275684 98.37401985812029 98.03593747857474 97.66698977413138 97.26753434121468 96.83795731511677 96.37867274804061 95.89012194413344 95.37277275300603 94.82711882331965 95.67168655138899 97.60611034883499 98.98570994465456 99.78606986535995 99.99292060458332 99.6025617959985 99.5442613216662 97.06860277230103 94.96985889977624 92.36229739750871 89.29056700899577 86.28270758313363 85.4241802981095 84.54647080315634 83.65034868666098 82.73659351816688 81.80599372588446 80.85934547183953 79.8974515268861 78.92112014778377 77.93116395851179 76.92839883795715 75.91364281607045 74.88771498054344 73.85143439600652 72.80561903769336 71.17703227626097 67.03200460356393 60.653065971263345 52.729242404304856 44.04316545059993 35.34546819587803 27.253179303401264 20.189651799465537 14.370394977770298 9.827358560436156 6.457034689316848
3.652860495145929E-4 9.732886947188954E-4 0.0024916009731503217 0.006128349505322217 0.01448227466826878 0.03288200228140395 0.0717311760109315 0.1503439192977573 0.30275547453758134 0.5857689713335614 1.0889023668554452 1.9448214745385404 3.337326996032607 5.502322005640725 8.716085146198127 13.265546508012175 19.398004229089185 27.253179303401264 36.78794411714422 47.71139155210344 59.452054797019436 71.17703227626097 81.87307530779819 90.48374180359595 96.07894391523232 98.03593747857474 98.37401985812029 98.68090843275684 98.95630437071462 99.19993897337098 99.4115741121324 99.591002616298 99.73804861102064 99.85256780459369 99.93444772440648 99.98360790102842 100.0 99.98360790102842 99.93444772440648 99.85256780459369 99.73804861102064 99.591002616298 99.4115741121324 99.199938973371 98.95630437071462 98.68090843275684 98.37401985812029 98.03593747857474 98.52252775844572 99.54792759231566 99.98407206509044 99.82316538652837 99.06808629763336 97.73230240323491 95.83947061961057 94.25367881810791 93.65299559357891 93.02563534321622 92.37218670906687 91.69325986216815 90.98948555412107 90.26151414187231 89.51001458781252 88.73567343733859 87.93919377606278 87.1212941688811 86.28270758313363 85.4241802981095 84.54647080315634 83.65034868666098 81.87307530779819 77.10515858035663 69.76763260710311 60.653065971263345 50.66169923655897 40.65696597405991 31.348618088260526 23.22362747297589 16.529888822158657 11.304153064044986 7.4273578214333895
3.4401344604594253E-4 9.166087736247624E-4 0.002346501428356972 0.005771462213521026 0.013638892648201145 0.030967103541862634 0.06755387751938452 0.14158857103468014 0.28512436826796334 0.5516564420760778 1.0254896296404015 1.831563888873417 3.1429762018367717 5.1818917172725865 8.208499862389877 12.493021219858248 18.26835240527347 25.66607769535559 34.64558103300575 44.932896411722155 55.989836656540206 67.03200460356393 77.10515858035663 85.21437889662113 90.48374180359595 92.37218670906687 93.02563534321622 93.65299559357891 94.25367881810791 94.8271188233196 95.37277275300603 95.89012194413344 96.37867274804061 96.83795731511677 97.26753434121468 97.66698977413138 98.03593747857474 98.37401985812029 98.68090843275684 98.95630437071462 99.19993897337098 99.4115741121324 99.591002616298 99.73804861102063 99.85256780459369 99.93444772440648 99.98360790102842 100.0 99.98360790102842 99.93444772440648 99.9968279646638 99.73804861102063 99.88678979487611 99.95576200027924 99.42818976623474 98.95630437071462 98.68090843275684 98.37401985812029 98.03593747857474 97.66698977413138 97.26753434121468 96.83795731511677 96.37867274804057 95.89012194413344 95.37277275300603 94.82711882331965 94.25367881810791 93.65299559357891 93.02563534321622 92.37218670906687 90.48374180359595 85.21437889662113 77.10515858035663 67.03200460356393 55.989836656540206 44.932896411722155 34.64558103300575 25.66607769535559 18.26835240527347 12.493021219858248 8.208499862389877
3.112762382898642E-4 8.29381916075739E-4 0.0021232022938522145 0.005222234967574471 0.01234098040866794 0.028020194012871213 0.06112527611295737 0.1281146370384212 0.25799119720271807 0.4991593906910219 0.9279013887064737 1.6572675401761259 2.843882471418451 4.688769521998851 7.4273578214333895 11.304153064044986 16.529888822158657 23.22362747297589 31.348618088260526 40.65696597405991 50.66169923655897 60.653065971263345 69.76763260710311 77.10515858035663 81.87307530779819 83.65034868666098 84.54647080315634 85.4241802981095 86.28270758313363 87.12129416888104 87.93919377606278 88.73567343733859 89.51001458781258 90.26151414187231 90.98948555412107 91.69325986216815 92.37218670906687 93.02563534321622 93.65299559357891 94.25367881810791 94.8271188233196 95.37277275300603 95.89012194413344 96.37867274804057 96.83795731511677 97.26753434121468 97.66698977413138 98.03593747857474 98.37401985812029 98.68090843275684 99.93578589175104 99.199938973371 99.4115741121324 99.591002616298 99.73804861102063 100.0 99.93444772440648 99.98360790102842 100.0 99.98360790102842 99.93444772440648 99.85256780459369 99.73804861102063 99.591002616298 99.4115741121324 99.199938973371 98.95630437071462 98.68090843275684 98.37401985812029 98.03593747857474 96.07894391523232 90.48374180359595 81.87307530779819 71.17703227626097 59.452054797019436 47.71139155210344 36.78794411714422 27.253179303401264 19.398004229089185 13.265546508012175 8.716085146198127
2.706105612412539E-4 7.210299990312847E-4 0.0018458233995780567 0.004539992976248479 0.010728732951170824 0.024359586422561932 0.053139762179825314 0.11137751478448037 0.2242867719485806 0.43394832707388964 0.8066787139099616 1.4407591843112353 2.4723526470339383 4.07622039783662 6.457034689316848 9.827358560436156 14.370394977770298 20.189651799465537 27.253179303401264 35.34546819587803 44.04316545059993 52.729242404304856 60.653065971263345 67.03200460356393 71.17703227626097 72.80561903769336 73.85143439600652 74.88771498054344 75.91364281607045 76.92839883795706 77.93116395851179 78.92112014778377 79.89745152688616 80.85934547183953 81.80599372588446 82.73659351816688 83.65034868666098 84.54647080315634 85.4241802981095 86.28270758313363 87.12129416888104 87.93919377606278 88.73567343733859 89.51001458781252 90.26151414187231 90.98948555412107 91.69325986216815 92.37218670906687 93.02563534321622 96.29481128188738 99.68329401019224 99.33528804178857 95.37277275300603 95.89012194413344 96.63149267941333 98.01986733067552 97.26753434121468 97.66698977413138 98.03593747857474 98.37401985812029 98.68090843275684 98.95630437071462 99.199938973371 99.4115741121324 99.591002616298 99.73804861102063 99.85256780459369 99.93444772440648 99.98360790102842 100.0 98.01986733067552 92.31163463866358 83.5270211411272 72.6149037073691 60.653065971263345 48.67522559599717 37.531109885139955 27.803730045319412 19.789869908361467 13.53352832366127 8.892161745938635
2.260329406981056E-4 6.022548797247295E-4 0.0015417613011934367 0.0037921208930767657 0.008961391040299537 0.02034683690106439 0.04438606039028746 0.09303032032049485 0.18734005942224272 0.3624641108965754 0.6737946999085469 1.2034232284723767 2.065082518171257 3.404745473459935 5.393368730035602 8.208499862389877 12.003162851145674 16.863814726859555 22.763768838381278 29.523016692401427 36.78794411714422 44.04316545059993 50.66169923655897 55.989836656540206 59.452054797019436 60.902154188512526 62.0001868718624 63.097325447220356 64.19282841106717 65.28594288575673 66.37590541774128 67.46194280700003 68.54327296655998 69.61910581090525 70.68864417198726 71.75108474146093 72.80561903769336 73.85143439600652 74.88771498054344 75.91364281607045 76.92839883795706 77.93116395851179 78.92112014778377 79.8974515268861 80.85934547183953 81.80599372588446 82.73659351816688 83.65034868666098 87.63701837667266 95.05130663401873 99.2408029937078 99.74339086820954 96.5027451241144 89.87872169339795 90.52378771655323 92.31163463866358 90.98948555412107 91.69325986216815 92.37218670906687 93.02563534321622 93.65299559357891 94.25367881810791 94.82711882331965 95.37277275300603 95.89012194413344 96.37867274804057 96.83795731511677 97.26753434121468 97.66698977413138 98.01986733067552 96.07894391523232 90.48374180359595 81.87307530779819 71.17703227626097 59.452054797019436 47.71139155210344 36.78794411714422 27.253179303401264 19.398004229089185 13.265546508012175 8.716085146198127
1.8139568386896777E-4 4.8332086214372753E-4 0.0012372924261788228 0.003043248300840364 0.007191684765732906 0.016328719092180814 0.035620647830703414 0.07465858083766795 0.1503439192977573 0.29088426258125877 0.5407329126440966 0.9657697627537771 1.6572675401761259 2.7323722447292553 4.32827979019659 6.587475442640296 9.6327638230493 13.53352832366127 18.26835240527347 23.692775868212184 29.523016692401427 35.34546819587803 40.65696597405991 44.932896411722155 47.71139155210344 48.963338555622705 50.02621835863492 51.09541545962292 52.17035638747095 53.250449803176124 54.33508690744997 55.42364188573672 56.515472390540985 57.609920060865015 58.70631107846814 59.80395676056772 60.902154188512526 62.0001868718624 63.097325447220356 64.19282841106717 65.28594288575673 66.37590541774128 67.46194280700003 68.5432729665599 69.61910581090525 70.68864417198726 71.75108474146093 75.33124639944934 85.60451176714282 93.64397419145838 98.6108492274167 99.9611494995948 97.54375382491243 91.62824497101775 82.85542553910892 83.5270211411272 81.87307530779819 82.73659351816688 83.65034868666098 84.54647080315634 85.4241802981095 86.28270758313363 87.1212941688811 87.93919377606278 88.73567343733859 89.51001458781252 90.26151414187231 90.98948555412107 91.69325986216815 92.31163463866358 90.48374180359595 85.21437889662113 77.10515858035663 67.03200460356393 55.989836656540206 44.932896411722155 34.64558103300575 25.66607769535559 18.26835240527347 12.493021219858248 8.208499862389877
1.3986542970508976E-4 3.7266531720786734E-4 9.540162873079269E-4 0.002346501428356972 0.005545159943217707 0.01259028475016699 0.027465356997214266 0.05756561714872758 0.11592291739045918 0.2242867719485806 0.41693296979041133 0.744658307092434 1.2778387649535765 2.1067999523041445 3.337326996032607 5.079283386489853 7.4273578214333895 10.435048475476501 14.0858420921045 18.26835240527347 22.763768838381278 27.253179303401264 31.348618088260526 34.64558103300575 36.78794411714422 37.833803401043156 38.794750461296815 39.767064256238775 40.750384203749846 41.74432978794733 42.74850057139519 43.76247624066063 44.78581668594149 45.818062115424375 46.858733204970314 47.90733128365501 48.963338555622705 50.02621835863492 51.09541545962292 52.17035638747095 53.250449803176124 54.33508690744997 55.42364188573672 56.5154723905409 57.609920060865015 58.70631107846814 61.159730868133465 72.81788669301376 83.45882311970534 92.08059611991946 97.7970305921972 99.9873124623509 98.40695696310999 93.23272755369874 85.03009371474222 74.65151159111565 71.17703227626097 71.75108474146093 72.80561903769336 73.85143439600652 74.88771498054344 75.91364281607045 76.92839883795715 77.93116395851179 78.92112014778377 79.8974515268861 80.85934547183953 81.80599372588446 82.73659351816688 83.5270211411272 81.87307530779819 77.10515858035663 69.76763260710311 60.653065971263345 50.66169923655897 40.65696597405991 31.348618088260526 23.22362747297589 16.529888822158657 11.304153064044986 7.4273578214333895
1.0361485876900842E-4 2.760772572037196E-4 7.067526484648328E-4 0.00173833101298252 0.004107955522530075 0.009327112346494885 0.02034683690106439 0.042645658068565434 0.08587780939743375 0.1661557273173933 0.308871540823677 0.5516564420760778 0.9466462401710334 1.5607557919982848 2.4723526470339383 3.7628256807176226 5.502322005640725 7.730474044329972 10.435048475476501 13.53352832366127 16.863814726859555 20.189651799465537 23.22362747297589 25.66607769535559 27.253179303401264 28.096976965873566 28.914711494704488 29.74649082566898 30.592165797186 31.451569122610472 32.32451509744624 33.21079932889549 34.11019848890974 35.02247009188729 35.94735229813596 36.8845637441911 37.833803401043156 38.794750461296815 39.767064256238775 40.750384203749846 41.74432978794733 42.74850057139519 43.76247624066063 44.78581668594141 45.818062115424375 46.89848686846197 58.503566123813336 70.2534293462708 81.21091397815157 90.36972238648107 96.80397223923187 99.82172927375778 99.08745643192688 94.68342334024742 87.09453476634232 77.1204466061974 65.7369951608025 59.80395676056772 60.902154188512526 62.0001868718624 63.097325447220356 64.19282841106717 65.28594288575682 66.37590541774128 67.46194280700003 68.5432729665599 69.61910581090525 70.68864417198726 71.75108474146093 72.6149037073691 71.17703227626097 67.03200460356393 60.653065971263345 52.729242404304856 44.04316545059993 35.34546819587803 27.253179303401264 20.189651799465537 14.370394977770298 9.827358560436156 6.457034689316848
7.374998146901935E-5 1.965035984673079E-4 5.030455607111461E-4 0.0012372924261788228 0.0029239208281656767 0.006638761765307788 0.01448227466826878 0.030353913807886636 0.06112527611295737 0.11826471566155732 0.2198455963042534 0.3926526838305625 0.6737946999085469 1.110899653824231 1.7597472415623396 2.6782676492638178 3.9163895098987074 5.502322005640725 7.4273578214333895 9.6327638230493 12.003162851145674 14.370394977770298 16.529888822158657 18.26835240527347 19.398004229089185 20.054405885254578 20.71263615877247 21.38545824088849 22.07289783972344 22.77496688792431 23.491663084001964 24.22296944270431 24.96885385560896 25.729268663135024 26.50415023918414 27.29341858962937 28.096976965873566 28.914711494704488 29.74649082566898 30.592165797186 31.451569122610472 32.32451509744624 33.21079932889549 34.11019848890974 35.02247009188729 44.39452986156206 55.85546270966289 67.64933425212598 78.87204120622482 88.52059295860502 95.63728281024349 99.4653518836108 99.58137038027701 95.9723333836698 89.03806020919302 79.51828522485197 68.36282527694715 56.576317976177236 48.963338555622705 50.02621835863492 51.09541545962292 52.17035638747095 53.25044980317622 54.33508690744997 55.42364188573672 56.5154723905409 57.609920060865015 58.70631107846814 59.80395676056772 60.653065971263345 59.452054797019436 55.989836656540206 50.66169923655897 44.04316545059993 36.78794411714422 29.523016692401427 22.763768838381278 16.863814726859555 12.003162851145674 8.208499862389877 5.393368730035602
5.043476625678885E-5 1.3438122776315224E-4 3.4401344604594253E-4 8.461365421744255E-4 0.0019995566179747334 0.004539992976248479 0.009903868763242701 0.020757870271771763 0.04180121746110127 0.08087667511241124 0.1503439192977573 0.26852001769538214 0.4607821929992749 0.7597014027577577 1.2034232284723767 1.831563888873417 2.6782676492638178 3.7628256807176226 5.079283386489853 6.587475442640296 8.208499862389877 9.827358560436156 11.304153064044986 12.493021219858248 13.265546508012175 13.757217955696003 14.260097723675011 14.776514147994307 15.306612737444997 15.850530548797598 16.408395700717662 16.98032688523731 17.566432877672316 18.1668120459112 18.781551860035872 19.4107284032668 20.054405885254578 20.71263615877247 21.38545824088849 22.07289783972344 22.77496688792431 23.491663084001964 24.22296944270431 24.96885385560896 31.818480464535458 41.943689698545064 53.22498019312738 65.01687111657075 76.45366391651834 86.54305482342536 94.30350168318373 98.92022555866713 99.88587009450566 97.09227930006146 90.85043611238632 81.83347935363639 70.95723718940133 59.22758959926126 47.58971455174303 38.794750461296815 39.767064256238775 40.750384203749846 41.7443297879474 42.74850057139519 43.76247624066063 44.78581668594141 45.818062115424375 46.858733204970314 47.90733128365501 48.67522559599717 47.71139155210344 44.932896411722155 40.65696597405991 35.34546819587803 29.523016692401427 23.692775868212184 18.26835240527347 13.53352832366127 9.6327638230493 6.587475442640296 4.32827979019659
3.313800277713885E-5 8.8294758344622E-5 2.260329406981056E-4 5.55951324165014E-4 0.0013138023168804537 0.002982987947026769 0.006507305474754297 0.013638892648201145 0.027465356997214266 0.053139762179825314 0.09878299405312299 0.17643022368343347 0.30275547453758134 0.4991593906910219 0.7907054051593443 1.2034232284723767 1.7597472415623396 2.4723526470339383 3.337326996032607 4.32827979019659 5.393368730035602 6.457034689316848 7.4273578214333895 8.208499862389877 8.716085146198127 9.070308271272435 9.435832859137683 9.812869869960075 10.201627181533937 10.602309188161325 11.015116389395494 11.440244969072436 11.877886365092282 12.328226830453232 12.791446986080027 13.267721366029752 13.757217955696003 14.260097723675011 14.776514147994307 15.306612737444997 15.850530548797598 16.408395700717662 16.98032688523731 21.539333593826054 29.748869216901948 39.552172459540714 50.621137912192815 62.36704172714547 73.96735108081654 84.4474748680942 92.81003793752502 98.18946933202102 99.99920698173283 98.03696983030518 92.52197255446654 84.05461582842503 73.50890139999093 61.8842279625514 50.151243141345404 39.124167410184555 29.74649082566898 30.592165797186 31.451569122610472 32.32451509744624 33.21079932889549 34.11019848890974 35.02247009188729 35.94735229813596 36.8845637441911 37.531109885139955 36.78794411714422 34.64558103300575 31.348618088260526 27.253179303401264 22.763768838381278 18.26835240527347 14.0858420921045 10.435048475476501 7.4273578214333895 5.079283386489853 3.337326996032607
2.0919479197970832E-5 5.5739036926945906E-5 1.426908988085513E-4 3.509629786432931E-4 8.29381916075739E-4 0.0018831115057022748 0.004107955522530075 0.008610009871634024 0.017338430690350532 0.033546262790251205 0.06236008859994447 0.11137751478448037 0.19112457966326402 0.3151111598444445 0.4991593906910219 0.7597014027577577 1.110899653824231 1.5607557919982848 2.1067999523041445 2.7323722447292553 3.404745473459935 4.07622039783662 4.688769521998851 5.1818917172725865 5.503224099581748 5.747567623815707 6.000792221709352 6.263119493957389 6.534771618984957 6.815971080569547 7.106940383092388 7.407901754455684 7.719076836731122 8.040686364637478 8.372949831977474 8.716085146198123 9.070308271272435 9.435832859137683 9.812869869960075 10.201627181533937 10.602309188161325 11.015116389395494 13.771712327498836 19.928616316094725 27.760547665308664 37.22550465026221 48.05237290442486 59.71050768945001 71.42469084855365 82.2446496965981 91.16510183596138 97.2772462788775 99.92072929467983 98.8010596914225 94.04360971978548 86.17050909363296 76.00632028235479 64.53605832827012 52.74931762563835 41.504284916359 31.43624797924035 22.920820316435478 22.77496688792431 23.491663084001964 24.22296944270431 24.96885385560896 25.729268663135024 26.50415023918414 27.29341858962937 27.803730045319412 27.253179303401264 25.66607769535559 23.22362747297589 20.189651799465537 16.863814726859555 13.53352832366127 10.435048475476501 7.730474044329972 5.502322005640725 3.7628256807176226 2.4723526470339383
1.2688305518789939E-5 3.3807434839047335E-5 8.654640498933893E-5 2.1286980697122744E-4 5.030455607111461E-4 0.0011421648638660512 0.0024916009731503217 0.005222234967574471 0.010516289805000117 0.02034683690106439 0.03782330567826259 0.06755387751938452 0.11592291739045918 0.19112457966326402 0.30275547453758134 0.4607821929992749 0.6737946999085469 0.9466462401710334 1.2778387649535765 1.6572675401761259 2.065082518171257 2.4723526470339383 2.843882471418451 3.1429762018367717 3.339516124846257 3.5003924963452713 3.667816095132833 3.841987681695143 4.023110790609038 4.2113915891075795 4.4070387245385785 4.610263160500039 4.8212780014520185 5.040298305622687 5.267540886045059 5.503224099581748 5.747567623815707 6.000792221709352 6.263119493957389 6.534771618984957 6.815971080569547 8.316612656327152 12.609175281072346 18.402997597603473 25.85545217235941 34.968530781291136 45.526505296994124 57.05752423323753 68.8372025470229 79.94571347608579 89.37762970861729 96.18872401504692 99.65088837416621 99.38019994750834 95.40699956791721 88.17029427553818 78.43791174824135 67.17248824024028 55.375610777864495 43.94478087279545 33.570495963013855 24.687089531829194 17.47606724389019 16.408395700717662 16.98032688523731 17.566432877672316 18.1668120459112 18.781551860035872 19.4107284032668 19.789869908361467 19.398004229089185 18.26835240527347 16.529888822158657 14.370394977770298 12.003162851145674 9.6327638230493 7.4273578214333895 5.502322005640725 3.9163895098987074 2.6782676492638178 1.7597472415623396
7.394087866662117E-6 1.9701223569702454E-5 5.043476625678885E-5 1.240495079956712E-4 2.9314892136891326E-4 6.655945783409189E-4 0.0014519761127166808 0.003043248300840364 0.006128349505322217 0.011857083645433888 0.022041465283014688 0.03936690406550784 0.06755387751938452 0.11137751478448037 0.17643022368343347 0.26852001769538214 0.3926526838305625 0.5516564420760778 0.744658307092434 0.9657697627537771 1.2034232284723767 1.4407591843112353 1.6572675401761259 1.831563888873417 1.9476930010898206 2.048896454910355 2.1546519499791343 2.2651233177633063 2.380478061119429 2.5008873173041533 2.6265258129877416 2.7575718109542917 2.8942070481754 3.036616664948886 3.184989124799608 3.339516124846257 3.5003924963452713 3.667816095132833 3.841987681695143 4.023110790609038 4.7435978121256515 7.535274379860825 11.522639160965703 16.961588916307015 24.034925774350345 32.78541742917162 43.05071118092221 54.41788058597796 66.2162522708748 77.56204490643186 87.45720320044008 94.93002594254463 99.1912343256226 99.77107923620648 96.60458204771848 90.0435195764693 80.79209666007412 69.78257255763857 58.0212062211359 46.43957227405572 35.78090733871602 26.538487517406438 18.94796906066739 13.022994175530997 11.440244969072436 11.877886365092282 12.328226830453232 12.791446986080027 13.267721366029752 13.53352832366127 13.265546508012175 12.493021219858248 11.304153064044986 9.827358560436156 8.208499862389877 6.587475442640296 5.079283386489853 3.7628256807176226 2.6782676492638178 1.831563888873417 1.2034232284723767
4.1399377187851705E-6 1.1030682896016183E-5 2.8238343245283883E-5 6.94551169000181E-5 1.64133602234864E-4 3.7266531720786734E-4 8.129590538020515E-4 0.0017039097526934611 0.003431252877771799 0.006638761765307788 0.01234098040866794 0.022041465283014688 0.03782330567826259 0.06236008859994447 0.09878299405312299 0.1503439192977573 0.2198455963042534 0.308871540823677 0.41693296979041133 0.5407329126440966 0.6737946999085469 0.8066787139099616 0.9279013887064737 1.0254896296404015 1.0917622532421651 1.1526405398094848 1.216514567526068 1.2835073084844535 1.353745376529021 1.427359057242837 1.5044823333992163 1.5852529055786835 1.6698122076466655 1.7583054167830963 1.8508814577512183 1.9476930010898206 2.048896454910355 2.1546519499791343 2.2651233177633063 2.555477715178093 4.253185380244595 6.814252263006967 10.509541807210992 15.60310523670167 22.29974893604569 30.679663353094323 40.63150289384373 51.80084730488086 63.572972890826904 75.10517439088626 85.41396390125588 93.50817388579907 98.54440118756442 99.97145530395699 97.62965488346818 91.78023689780443 83.05738909554992 72.35508465668758 60.67663914920188 48.98190359785427 38.06374203776723 28.4740330013949 20.504452008818173 14.21376171388718 9.484874180993206 7.719076836731122 8.040686364637478 8.372949831977474 8.716085146198127 8.892161745938635 8.716085146198127 8.208499862389877 7.4273578214333895 6.457034689316848 5.393368730035602 4.32827979019659 3.337326996032607 2.4723526470339383 1.7597472415623396 1.2034232284723767 0.7907054051593443
2.227056467808874E-6 5.933894506782637E-6 1.5190659675689652E-5 3.736299379885256E-5 8.8294758344622E-5 2.0047323447642732E-4 4.373268009850429E-4 9.166087736247624E-4 0.0018458233995780567 0.0035712849641635165 0.006638761765307788 0.011857083645433888 0.02034683690106439 0.033546262790251205 0.053139762179825314 0.08087667511241124 0.11826471566155732 0.1661557273173933 0.2242867719485806 0.29088426258125877 0.3624641108965754 0.43394832707388964 0.4991593906910219 0.5516564420760778 0.588174590018336 0.6232156945725489 0.660127938001405 0.6989972279195679 0.7399125639162979 0.7829660995005202 0.8282532023629027 0.8758725127346502 0.9259259996141137 0.9785190146242135 1.0337603432555333 1.0917622532421651 1.1526405398094848 1.216514567526068 1.3002869048892487 2.2674222640941015 3.806162315268661 6.150407392994311 9.567140298445706 14.325905507112452 20.65017336834652 28.654115187671458 38.27471654278339 49.2151308501599 60.91818922406759 72.58669245391008 83.2585244202623 91.93102287017723 97.71408179057246 99.98017642983993 98.47643603229794 93.37108959736392 85.22248850172517 74.87859321726631 63.33194441225572 51.56436188995595 40.41458782402514 30.49217057137247 22.146250476189845 15.483664587491822 10.420990085237266 6.751587351272229 5.040298305622687 5.267540886045059 5.502322005640725 5.613476283413374 5.502322005640725 5.1818917172725865 4.688769521998851 4.07622039783662 3.404745473459935 2.7323722447292553 2.1067999523041445 1.5607557919982848 1.110899653824231 0.7597014027577577 0.4991593906910219
1.1510571073753824E-6 3.066941294563569E-6 7.851312725189438E-6 1.9311113205542063E-5 4.563526367903997E-5 1.0361485876900842E-4 2.260329406981056E-4 4.7375046785475824E-4 9.540162873079269E-4 0.0018458233995780567 0.003431252877771799 0.006128349505322217 0.010516289805000117 0.017338430690350532 0.027465356997214266 0.04180121746110127 0.06112527611295737 0.08587780939743375 0.11592291739045918 0.1503439192977573 0.18734005942224272 0.2242867719485806 0.25799119720271807 0.28512436826796334 0.3045475109327662 0.32385714696959217 0.3442782012631926 0.36586694434559774 0.3886820007637286 0.41278441742554367 0.4382377321266781 0.4651080421300279 0.49346407266245945 0.5233772451847805 0.5549217452827262 0.588174590018336 0.6232156945725489 0.660127938001405 1.14170355614219 2.0079794121723182 3.3995923082425126 5.540591107240899 8.692546922891257 13.128033225069263 19.08595831863128 26.710988189367935 35.985506513035276 46.66883557468225 58.26234901339918 70.01816040564394 81.00187699209778 90.20718889008823 96.70499264251204 99.79719245162327 99.14011799883573 94.8073963013097 87.2763727205266 77.34154391188332 65.97671175367662 54.17889916065709 42.8283523262356 32.59074118017891 23.8736481154058 16.834685974586495 11.427544771762333 7.467281501325706 4.697143153210721 3.184989124799608 3.337326996032607 3.404745473459935 3.337326996032607 3.1429762018367717 2.843882471418451 2.4723526470339383 2.065082518171257 1.6572675401761259 1.2778387649535765 0.9466462401710334 0.6737946999085469 0.4607821929992749 0.30275547453758134
5.715980433472658E-7 1.5229979744712643E-6 3.898846514799559E-6 9.589615017724412E-6 2.266180127765712E-5 5.145361611911217E-5 1.122446365234345E-4 2.3525752000097726E-4 4.7375046785475824E-4 9.166087736247624E-4 0.0017039097526934611 0.003043248300840364 0.005222234967574471 0.008610009871634024 0.013638892648201145 0.020757870271771763 0.030353913807886636 0.042645658068565434 0.05756561714872758 0.07465858083766795 0.09303032032049485 0.11137751478448037 0.1281146370384212 0.14158857103468014 0.15155646349552232 0.1617481052210641 0.1725685100663476 0.18405240869880177 0.19623617485713174 0.2091578854190954 0.22285738157270737 0.23737633103970054 0.2527582912941583 0.26904877371313357 0.2862953085897566 0.3045475109327662 0.32385714696959217 0.5429716488588683 1.0005390861992416 1.7748131790746964 3.0306299530126064 4.981668883404132 7.882763282071095 12.007256618105123 17.606408753643382 24.851891481642674 33.76834663223934 44.169433199861444 55.615460260640994 67.41102419211502 78.65530070998456 88.34597059534103 95.52282930714856 99.42355524632804 99.61691329332295 96.08122972221443 89.20839082625878 79.73234522170965 68.60014787554525 56.81686222839992 45.29926128776408 34.766956520166204 25.686439517132477 18.26835240527347 12.493021219858248 8.208499862389877 5.1818917172725865 3.1429762018367717 1.9448214745385404 1.9841094744370291 1.9448214745385404 1.831563888873417 1.6572675401761259 1.4407591843112353 1.2034232284723767 0.9657697627537771 0.744658307092434 0.5516564420760778 0.3926526838305625 0.26852001769538214 0.17643022368343347
2.727173805655754E-7 7.266435269305904E-7 1.8601939266915526E-6 4.5753387694458E-6 1.0812260740342585E-5 2.4549236254305766E-5 5.355347802793113E-5 1.122446365234345E-4 2.260329406981056E-4 4.373268009850429E-4 8.129590538020515E-4 0.0014519761127166808 0.0024916009731503217 0.004107955522530075 0.006507305474754297 0.009903868763242701 0.01448227466826878 0.02034683690106439 0.027465356997214266 0.035620647830703414 0.04438606039028746 0.053139762179825314 0.06112527611295737 0.06755387751938452 0.07248772725202901 0.07764178842214924 0.08313505454359837 0.0889877958867811 0.09522134734667459 0.10185815443765521 0.10892182063452309 0.11643715605771207 0.12443022749729908 0.13292840976690737 0.1419604383748039 0.15155646349552232 0.2438955105101287 0.4708815943447511 0.8751475971431558 1.5657145036145195 2.6965316670464965 4.470541754481755 7.134712320504853 10.961108028866406 16.210414872727412 23.077857221648628 31.627037591002228 41.72373974638147 52.987035354148574 64.77653229770833 76.23026847302688 86.35726589051704 94.17421286675696 98.8614086588692 99.90409043185447 97.18548948332507 91.00835468960739 82.03945752029665 71.19114490281856 59.452054797019436 47.71139155210344 36.78794411714422 27.253179303401264 19.398004229089185 13.265546508012175 8.716085146198127 5.502322005640725 3.337326996032607 1.9448214745385404 1.110899653824231 1.0889023668554452 1.0254896296404015 0.9279013887064737 0.8066787139099616 0.6737946999085469 0.5407329126440966 0.41693296979041133 0.308871540823677 0.2198455963042534 0.1503439192977573 0.09878299405312299
1.250152866386744E-7 3.330977608210126E-7 8.527240781888751E-7 2.0973627956717965E-6 4.956405319172502E-6 1.1253517471925882E-5 2.4549236254305766E-5 5.145361611911217E-5 1.0361485876900842E-4 2.0047323447642732E-4 3.7266531720786734E-4 6.655945783409189E-4 0.0011421648638660512 0.0018831115057022748 0.002982987947026769 0.004539992976248479 0.006638761765307788 0.009327112346494885 0.01259028475016699 0.016328719092180814 0.02034683690106439 0.024359586422561932 0.028020194012871213 0.030967103541862634 0.03332154395782692 0.03581974348778998 0.0384926166884528 0.041351379929149036 0.04440789496903392 0.047674700760211 0.05116504645643375 0.054892925649201035 0.058873111851747754 0.06312119524997017 0.06765362073770981 0.1034744940216149 0.20931108266841483 0.4075799551473387 0.7640030470322443 1.3786024453915493 2.3946645153617654 4.0041652604572295 6.445268119834663 9.98692213761922 14.896492414103182 21.389373099142915 29.56472016351145 39.337899792585695 50.38604232245809 62.12565848323397 73.73835471010865 84.25148449198754 92.66662817271913 98.11396801368792 100.0 98.01986733067552 92.31163463866358 83.5270211411272 72.6149037073691 60.653065971263345 48.67522559599717 37.531109885139955 27.803730045319412 19.789869908361467 13.53352832366127 8.892161745938635 5.613476283413374 3.404745473459935 1.9841094744370291 1.110899653824231 0.5976022895005945 0.5516564420760778 0.4991593906910219 0.43394832707388964 0.3624641108965754 0.29088426258125877 0.2242867719485806 0.1661557273173933 0.11826471566155732 0.08087667511241124 0.053139762179825314
