0.0016312217117118695 0.003371595359509568 0.006798560876187237 0.0133738861908783 0.025665950048418092 0.04805251859365798 0.08776756616114774 0.1563907435077047 0.27186113302308695 0.4610439101824203 0.7597014027577577 1.2034232284723767 1.831563888873417 2.6782676492638178 3.7628256807176226 5.079283386489853 6.587475442640296 8.208499862389877 9.827358560436156 11.304153064044986 12.493021219858248 13.265546508012175 13.53352832366127 13.265546508012175 12.493021219858248 11.304153064044986 9.827358560436156 8.208499862389877 6.587475442640296 5.079283386489853 3.7628256807176226 2.843882471418451 2.4723526470339383 2.4723526470339383 3.337326996032607 4.32827979019659 5.393368730035602 6.457034689316848 7.4273578214333895 8.208499862389877 8.716085146198127 8.892161745938635 8.716085146198127 8.208499862389877 7.4273578214333895 6.457034689316848 5.393368730035602 4.32827979019659 3.337326996032607 2.4723526470339383 1.7597472415623396
0.002891815355194023 0.005862106800141465 0.011593003918156031 0.022366463883232494 0.04209764121733965 0.07729960703229627 0.13847006590179478 0.24198787221349755 0.4125631097342902 0.6861929822902259 1.1134257004592423 1.7597472415623396 2.6782676492638178 3.9163895098987074 5.502322005640725 7.4273578214333895 9.6327638230493 12.003162851145674 14.370394977770298 16.529888822158657 18.26835240527347 19.398004229089185 19.789869908361467 19.398004229089185 18.26835240527347 16.529888822158657 14.370394977770298 12.003162851145674 9.6327638230493 7.4273578214333895 5.502322005640725 4.688769521998851 4.07622039783662 3.7628256807176226 5.079283386489853 6.587475442640296 8.208499862389877 9.827358560436156 11.304153064044986 12.493021219858248 13.265546508012175 13.53352832366127 13.265546508012175 12.493021219858248 11.304153064044986 9.827358560436156 8.208499862389877 6.587475442640296 5.079283386489853 3.7628256807176226 2.6782676492638178
0.005048905674835935 0.010037860066656986 0.01946902066832498 0.036838858487384864 0.06800288091314526 0.12246374841417211 0.21515273642835966 0.36876125887623146 0.6165989671419116 1.0058179597843484 1.600645169724952 2.485019722365594 3.7628256807176226 5.502322005640725 7.730474044329972 10.435048475476501 13.53352832366127 16.863814726859555 20.189651799465537 23.22362747297589 25.66607769535559 27.253179303401264 27.803730045319412 27.253179303401264 25.66607769535559 23.22362747297589 20.189651799465537 16.863814726859555 13.53352832366127 10.435048475476501 8.208499862389877 7.4273578214333895 6.457034689316848 5.515988486753787 7.4273578214333895 9.6327638230493 12.003162851145674 14.370394977770298 16.529888822158657 18.26835240527347 19.398004229089185 19.789869908361467 19.398004229089185 18.26835240527347 16.529888822158657 14.370394977770298 12.003162851145674 9.6327638230493 7.4273578214333895 5.502322005640725 3.9163895098987074
0.008681466354003022 0.01692768930443318 0.03220040701637206 0.059756359643695314 0.10818473676774344 0.19107635241656934 0.32923574536018707 0.5534343468587168 0.9075787639100209 1.451983333969106 2.2661989121494304 3.450591205619614 5.125639816568883 7.42782643923324 10.435048475476501 14.0858420921045 18.26835240527347 22.763768838381278 27.253179303401264 31.348618088260526 34.64558103300575 36.78794411714422 37.531109885139955 36.78794411714422 34.64558103300575 31.348618088260526 27.253179303401264 22.763768838381278 18.26835240527347 14.0858420921045 12.493021219858248 11.304153064044986 9.827358560436156 8.208499862389877 10.445892224822456 13.53352832366127 16.863814726859555 20.189651799465537 23.22362747297589 25.66607769535559 27.253179303401264 27.803730045319412 27.253179303401264 25.66607769535559 23.22362747297589 20.189651799465537 16.863814726859555 13.53352832366127 10.435048475476501 7.730474044329972 5.502322005640725
0.014701378102219604 0.0281140461250216 0.05245027238506495 0.09546215453706465 0.16950160121763183 0.2936131264630004 0.4961765317145204 0.8180051910715431 1.3156337003670224 2.0643009314077974 3.159876555161081 4.718742882811605 6.874507662488563 9.770481707359162 13.547196827308605 18.26835240527347 23.692775868212184 29.523016692401427 35.34546819587803 40.65696597405991 44.932896411722155 47.71139155210344 48.67522559599717 47.71139155210344 44.932896411722155 40.65696597405991 35.34546819587803 29.523016692401427 23.692775868212184 19.398004229089185 18.26835240527347 16.529888822158657 14.370394977770298 12.003162851145674 14.300747618158734 18.272273073228224 22.763768838381278 27.253179303401264 31.348618088260526 34.64558103300575 36.78794411714422 37.531109885139955 36.78794411714422 34.64558103300575 31.348618088260526 27.253179303401264 22.763768838381278 18.26835240527347 14.0858420921045 10.435048475476501 7.4273578214333895
0.02451840077475757 0.04598520833009416 0.08414014694468983 0.15019222914107902 0.26154760601467514 0.4443376609181658 0.7364352852045887 1.190735063568693 1.8782560015785172 2.8903705070228036 4.339216688465986 6.355185744868133 9.080384687929621 12.657249359105569 17.21208625626573 22.834251526658957 29.523016692401427 36.78794411714422 44.04316545059993 50.66169923655897 55.989836656540206 59.452054797019436 60.653065971263345 59.452054797019436 55.989836656540206 50.66169923655897 44.04316545059993 36.78794411714422 29.523016692401427 27.253179303401264 25.66607769535559 23.22362747297589 20.189651799465537 16.863814726859555 19.123399219312105 23.957816774666693 29.523016692401427 35.34546819587803 40.65696597405991 44.932896411722155 47.71139155210344 48.67522559599717 47.71139155210344 44.932896411722155 40.65696597405991 35.34546819587803 29.523016692401427 23.692775868212184 18.26835240527347 13.53352832366127 9.6327638230493
0.040271273513011414 0.07407677987044708 0.13293150323954525 0.23271952714449387 0.3974631085553639 0.6622468679437072 1.076470394852387 1.7070386597861 2.6408498688107676 3.985686698260825 5.868426792184018 8.429451462319717 11.812342381845781 16.148486617896904 21.537074904934812 28.022101268542187 35.56917294638697 44.04316545059993 52.729242404304856 60.653065971263345 67.03200460356393 71.17703227626097 72.6149037073691 71.17703227626097 67.03200460356393 60.653065971263345 52.729242404304856 44.04316545059993 37.531109885139955 36.78794411714422 34.64558103300575 31.348618088260526 27.253179303401264 22.763768838381278 24.97839840886996 30.68280422892068 37.07324342264546 44.04316545059993 50.66169923655897 55.989836656540206 59.452054797019436 60.653065971263345 59.452054797019436 55.989836656540206 50.66169923655897 44.04316545059993 36.78794411714422 29.523016692401427 22.763768838381278 16.863814726859555 12.003162851145674
0.0651429946273179 0.11752091487791363 0.20683388873768815 0.35512996625092774 0.5948562541752864 0.9720661791453047 1.549668207668859 2.4101312991594517 3.656804740357944 5.4127993583387175 7.816299207766675 11.011323244478726 15.133414832330228 20.29053280778074 26.54049721486636 33.86754740645215 42.16164325011936 51.204767684902016 60.66837467031665 69.76763260710311 77.10515858035663 81.87307530779819 83.5270211411272 81.87307530779819 77.10515858035663 69.76763260710311 60.653065971263345 50.66169923655897 48.67522559599717 47.71139155210344 44.932896411722155 40.65696597405991 35.34546819587803 29.523016692401427 31.868177910308948 38.38274287285075 45.47260697506071 52.990592192630295 60.653065971263345 67.03200460356393 71.17703227626097 72.6149037073691 71.17703227626097 67.03200460356393 60.653065971263345 52.729242404304856 44.04316545059993 35.34546819587803 27.253179303401264 20.189651799465537 14.370394977770298
0.10377893423290292 0.18361889254925906 0.31694551475940014 0.5337168890552537 0.8767915804429701 1.4052088773076823 2.1970730043323408 3.351252725488779 4.986880502803059 7.239521000320777 10.252972487555356 14.166052302316398 19.09444233194994 25.1086987545831 32.2107266717369 40.312146915419355 49.21873220616785 58.62515536075791 68.12345716082801 77.22687151260972 85.21437889662113 90.48374180359595 92.31163463866358 90.48374180359595 85.21437889662113 77.10515858035663 67.03200460356393 59.452054797019436 60.653065971263345 59.452054797019436 55.989836656540206 50.66169923655897 44.04316545059993 36.78794411714422 39.713944577739944 46.89970510557388 54.47939443974339 62.24858792950385 69.96193454090414 77.10515858035663 81.87307530779819 83.5270211411272 81.87307530779819 77.10515858035663 69.76763260710311 60.653065971263345 50.66169923655897 40.65696597405991 31.348618088260526 23.22362747297589 16.529888822158657
0.16282452693009847 0.2825456954945241 0.47831792319947225 0.78995745748836 1.272769738953879 2.0005760622565516 3.067745897733912 4.589261334812216 6.697693717864861 9.536013716984403 13.245475075947608 17.94846454929296 23.72718150948358 30.600187859327537 38.50003479188393 47.256030745726704 56.58644987652828 66.10384855085866 75.33557903605266 83.75921640058829 90.849840652465 96.07894391523232 98.01986733067552 96.07894391523232 90.48374180359595 81.87307530779819 71.17703227626097 71.17703227626097 72.6149037073691 71.17703227626097 67.03200460356393 60.653065971263345 52.729242404304856 44.04316545059993 48.34170518645256 55.97542052908525 63.754058638668255 71.4255154340888 78.7107411284916 85.31977338074725 90.48374180359595 92.31163463866358 90.48374180359595 85.21437889662113 77.10515858035663 67.03200460356393 55.989836656540206 44.932896411722155 34.64558103300575 25.66607769535559 18.26835240527347
0.2515935918420136 0.42818274152965874 0.710915250594518 1.1515043749451506 1.8195853979119645 2.805035634373466 4.218552047862167 6.189385452851958 8.859123115103625 12.370664636805982 16.852115193287446 22.396228708622264 29.037181400981147 36.72764743097247 45.32009931746865 54.556648650384666 64.07131016544069 73.4071924795143 82.04889059813435 89.46762344302002 95.1739684344169 98.77102133337267 100.0 98.01986733067552 92.31163463866358 83.5270211411272 77.10515858035663 81.87307530779819 83.5270211411272 81.87307530779819 77.10515858035663 69.76763260710311 60.653065971263345 50.66169923655897 57.476994854705445 65.2555967773154 72.87466162525928 80.05167245954338 86.49666067727813 91.93128820091441 96.1086381336817 98.01986733067552 96.07894391523232 90.48374180359595 81.87307530779819 71.17703227626097 59.452054797019436 47.71139155210344 36.78794411714422 27.253179303401264 19.398004229089185
0.38286746002396455 0.63905575943167 1.040610343707799 1.65309043453854 2.561911814219027 3.873386451695038 5.713162422356484 8.220938551556948 11.540518517896208 15.804775509847357 21.115940520339837 27.522736840912476 34.99708678154016 43.41414579358919 52.53995729653808 62.03078250261769 71.44698277102098 80.28226480748191 88.0064347199157 94.11705477738704 98.19317849327179 99.94323378373174 99.23949960974703 96.13351527441928 90.48374180359595 81.87307530779819 85.21437889662113 90.48374180359595 92.31163463866358 90.48374180359595 85.21437889662113 77.10515858035663 67.03200460356393 58.98238591481741 66.75123247103119 74.30727141871274 81.36514685662233 87.63560396891133 92.84485205977077 96.75427121239498 99.17850020031923 100.0 98.01986733067552 92.31163463866358 83.5270211411272 72.6149037073691 60.653065971263345 48.67522559599717 37.531109885139955 27.803730045319412 19.789869908361467
0.5738078304704817 0.9393284570917365 1.5001254454089594 2.3372047754862915 3.5524260122217557 5.267595367796392 7.620068262135484 10.753860680945982 14.805703190950883 19.886243875330592 26.0576695617258 33.31021785116529 41.541144987939035 50.540384493981136 59.9870782497661 69.46018996548814 78.46451831986272 86.4708540675877 92.96624144550036 97.50791877668148 99.77312840596645 99.59702862851513 96.99252448664498 92.14870441310332 85.40814571824666 81.87307530779819 90.48374180359595 96.07894391523232 98.01986733067552 96.07894391523232 90.48374180359595 81.87307530779819 71.17703227626097 68.23896114718481 75.72123210043257 82.64907747542838 88.73468700530627 93.70956160416843 97.34406175657577 99.46495580096638 99.96910348640246 98.83177012426734 96.07894391523232 90.48374180359595 81.87307530779819 71.17703227626097 59.452054797019436 47.71139155210344 36.78794411714422 27.253179303401264 19.398004229089185
0.8469418934937271 1.359769630957502 2.1297868855939406 3.2543634127396084 4.851265441155647 7.055099069289226 10.009451608283978 13.854043313916655 18.706902688266105 24.642588346514575 31.66867160260636 39.70383523773923 48.561731407500695 57.94486485869914 67.45200060453766 76.60088818566993 84.86563487763976 91.72527297392467 96.7175419272343 99.49026258352607 99.84239561972515 97.74813904207339 93.3600535330233 86.99068994610035 79.07579153334977 83.5270211411272 92.31163463866358 98.01986733067552 100.0 98.04251713672262 92.39698735322006 83.7008898089951 72.88383970661272 77.11442499309238 83.90139908772802 89.79204325870775 94.52388835893973 97.87693835618025 99.69060836079173 99.87647120948647 98.42540398851492 95.40833028034605 90.97047404782221 85.21437889662113 77.10515858035663 67.03200460356393 55.989836656540206 44.932896411722155 34.64558103300575 25.66607769535559 18.26835240527347
1.2311469458813862 1.9385737462929227 2.977925652360721 4.462769578697263 6.524604123402583 9.305998060221915 12.948839213867345 17.577528387647767 23.27790368343205 30.07384900797856 37.90471644345357 46.60758266022327 55.90864849543986 65.42752599249354 74.6966444076811 83.19567993169308 90.3981510089686 95.82468688754997 99.09559719882807 99.97476659110035 98.39783152125212 94.47996973939551 88.50199335787268 80.87707734415666 72.10359756542395 82.61534654117973 91.58931261095819 97.6017884717748 99.97689797578788 98.43973703721335 93.16872188240274 84.76151999202676 78.48473062740979 85.12007356562322 90.80586118837908 95.28638389176882 98.3519291937027 99.85504078982628 99.72227478402924 97.96014810035398 94.65460824351277 89.9640844786472 84.10690270202073 77.34445586017912 69.76763260710311 60.653065971263345 50.66169923655897 40.65696597405991 31.348618088260526 23.22362747297589 16.529888822158657
1.7625250582575944 2.7218766997780466 4.100725366989162 6.027150149107318 8.642162456613752 12.089043221971659 16.497590666393116 21.963836718232287 28.526926177958007 36.146049516993735 44.6812988589392 53.882759426819774 63.39178150887162 72.75706552470747 81.46601658395073 88.98911283639401 94.8323171219712 98.59046986182737 99.99369105075759 98.93941819698323 95.50479877110614 89.93735780947532 82.62550837670265 74.05378378348736 70.36864661060056 81.50620980404327 90.74675483066824 97.11815293313163 99.9076239204313 98.792904132758 93.9034999715743 85.79593519580595 86.30309536627611 91.7743893985394 95.99568410315169 98.76816499713317 99.95794875817722 99.5067996459156 97.43685437483745 93.84882166572643 88.9138603721646 82.86004822095956 75.95493038043924 68.48600470075013 60.74111581299654 52.729242404304856 44.04316545059993 36.78794411714422 29.523016692401427 22.763768838381278 16.863814726859555
2.4723526470339383 3.7637754095567786 5.5613041858462084 8.01657184698185 11.273527207381804 15.466428369100111 20.70042876035478 27.028860479024956 34.42985717967504 42.78601066131378 51.87133889276494 61.349667066158496 70.78741474058721 79.6817717182273 87.50260888091954 93.74370423366749 97.9765873571577 99.89910456147058 99.37107126205558 96.43117022945917 91.29226698385247 84.3159301497262 75.97039216196954 66.77873536663222 69.0958793417266 80.374814281792 89.87040983280271 96.59226889218093 99.79227381182605 99.10153347476239 94.60034856943093 87.44849699661901 92.69594166930825 96.65051329074883 99.12488169064251 99.99914163458527 99.23044417169339 96.8564777356073 92.99240521587113 87.82160359996453 81.58124301521639 74.54428378055186 72.6149037073691 71.17703227626097 67.03200460356393 60.653065971263345 52.729242404304856 44.04316545059993 35.34546819587803 27.253179303401264 20.189651799465537
3.337326996032607 5.079283386489853 7.4273578214333895 10.501092866310954 14.483260435907564 19.487551249028286 25.58039754844203 32.757926043488276 40.92461436253298 49.878327499852304 59.305948809515286 68.79291674540077 77.8481466526278 85.94327934380941 92.56241000282243 97.25601603615588 99.69132910620952 99.69132910620952 97.2560160361559 92.56241000282246 85.94327934380945 77.8481466526278 68.79291674540077 59.305948809515286 67.81478874823989 79.22250707555055 88.96140971229983 96.02484970762747 99.63100736689204 99.36520031615795 95.2583399457707 93.56890184047684 97.2496879711884 99.42142273168237 99.97854307485972 98.89371845127909 96.22007321147636 92.08687433559871 86.68917188826416 80.27254817741782 77.10515858035663 81.87307530779819 83.5270211411272 81.87307530779819 77.10515858035663 69.76763260710311 60.653065971263345 50.66169923655897 40.65696597405991 31.348618088260526 23.22362747297589
4.32827979019659 6.587475442640296 9.6327638230493 13.53352832366127 18.324916087547233 24.182079114313296 31.131809902345374 39.09976896803043 47.90745515859225 57.26524214238082 66.77873536663222 75.97039216196954 84.3159301497262 91.29226698385243 96.43117022945916 99.37107126205557 99.89910456147058 97.97658735715771 93.74370423366751 87.50260888091958 79.68177171822734 70.78741474058721 61.349667066158496 54.50601051198739 66.52670187235012 78.05064505925522 88.02092040663659 95.41666211326192 99.42404767304947 99.58354108548754 95.87659374831607 97.79212044330067 99.65724112449422 99.89619125764877 98.4972427191055 95.52879274111925 91.13382077490506 85.51847356979022 78.93604732941021 79.61678842777474 85.5670988338278 90.48374180359595 92.31163463866358 90.48374180359595 85.21437889662113 77.10515858035663 67.03200460356393 55.989836656540206 44.932896411722155 34.64558103300575 25.66607769535559
5.393368730035602 8.208499862389877 12.003162851145674 16.863814726859555 22.763768838381278 29.552834154018964 37.313894708790606 45.96223257403852 55.23199614893581 64.74995217784848 74.05378378348736 82.62550837670265 89.93735780947532 95.50479877110611 98.93941819698321 99.99369105075759 98.59046986182737 94.83231712197122 88.98911283639406 81.46601658395079 72.75706552470751 63.39178150887162 53.882759426819774 55.47604477324592 65.23293045878715 76.8605922504347 87.05013921014714 94.76852449190747 99.17168067395326 99.75625422231938 98.27682207777114 99.83190110138452 99.75223876652606 98.04174545046588 94.78388169941596 90.13490793524623 84.31146224640997 77.57384115378575 82.0129569241013 87.67547921805887 92.45765881278125 96.17821261737059 98.01986733067552 96.07894391523232 90.48374180359595 81.87307530779819 71.17703227626097 59.452054797019436 47.71139155210344 36.78794411714422 27.253179303401264
6.457034689316848 9.827358560436156 14.370394977770298 20.189651799465537 27.253179303401264 35.34546819587803 44.045944286868306 53.21047947115901 62.711546181452604 72.10359756542391 80.87707734415666 88.50199335787268 94.47996973939551 98.3978315212521 99.97476659110033 99.09559719882809 95.82468688754999 90.39815100896864 83.19567993169312 74.69664440768116 65.4275259924936 55.90864849543986 56.975959371595785 64.7556418605279 72.39334621037325 79.60764254801154 86.10848495268657 94.08130504098175 98.87425451114488 99.88310087130205 99.9450794645326 99.54695211890296 97.52806113123191 93.98667516010602 89.09186603924078 83.07013138331173 78.20656042097276 84.30693941125935 89.65046097167605 94.03960503660443 97.30566650683097 99.31950192090693 100.0 98.01986733067552 92.31163463866358 83.5270211411272 72.6149037073691 60.653065971263345 48.67522559599717 37.531109885139955 27.803730045319412
7.4273578214333895 11.304153064044986 16.529888822158657 23.22362747297589 31.348618088260526 40.65696597405991 50.66169923655897 60.653065971263345 70.12508641087398 79.07579153334973 86.99068994610035 93.3600535330233 97.74813904207339 99.84239561972515 99.49026258352609 96.71754192723432 91.7252729739247 84.8656348776398 76.60088818566999 67.45200060453773 57.9448648586992 58.48027391226487 66.25346613751813 73.83170244109304 80.9305020377703 87.26029146468433 92.54568132996016 96.54520919492973 99.06959138842815 99.99656658254827 99.28071094380279 96.95712771050344 93.13859391044723 88.00648714655874 81.79650885555614 80.65541885621693 86.48627936959187 91.48079779535354 95.45127599999043 98.2432224892616 99.74531959353415 99.89678670518323 98.69146082582415 96.07894391523232 90.48374180359595 81.87307530779819 71.17703227626097 59.452054797019436 47.71139155210344 36.78794411714422 27.253179303401264
8.208499862389877 12.493021219858248 18.26835240527347 25.66607769535559 34.64558103300575 44.932896411722155 55.989836656540206 67.03200460356393 77.10515858035663 85.40814571824662 92.14870441310332 96.99252448664498 99.59702862851513 99.77312840596646 97.5079187766815 92.9662414455004 86.47085406758774 78.46451831986276 69.4601899654882 59.98707824976616 59.98722119040261 67.74405518704793 75.25211471285887 82.22451123266345 88.3728712094686 93.42684930148386 97.1537377902991 99.3762026717482 99.98626703747824 99.99855596710495 97.93639138435901 92.24114023452248 86.88062003605161 80.49265146773534 83.00933865536646 88.53890421850001 93.15590676148668 96.68424678162766 98.98516349726661 99.96628597950098 99.5877855600882 97.86505841210808 94.8676864899571 90.71477456017038 85.21437889662113 77.10515858035663 67.03200460356393 55.989836656540206 44.932896411722155 34.64558103300575 25.66607769535559
8.716085146198127 13.265546508012175 19.398004229089185 27.253179303401264 36.78794411714422 47.71139155210344 59.452054797019436 71.17703227626097 81.87307530779819 90.48374180359595 96.13351527441928 99.23949960974703 99.94323378373174 98.1931784932718 94.11705477738707 88.00643471991575 80.28226480748195 71.44698277102104 62.03078250261773 61.494982967058164 69.22538363381345 76.65246576692016 83.48759709034556 89.44434049548792 94.25813529946524 97.70569866623363 99.62217478986693 99.91419991946576 98.56744172389915 99.98700445460247 98.34454176175446 92.97921394100597 84.49876957307282 85.25569408736786 90.45323609633603 94.66597002967426 97.73108846944042 99.52693912345929 99.98103446464926 99.07490619920665 96.84535146792996 93.38195358381851 88.82111011484443 83.33712314531138 77.13116259632551 69.76763260710311 60.653065971263345 50.66169923655897 40.65696597405991 31.348618088260526 23.22362747297589
8.892161745938635 13.53352832366127 19.789869908361467 27.803730045319412 37.531109885139955 48.67522559599717 60.653065971263345 72.6149037073691 83.5270211411272 92.31163463866358 98.01986733067552 100.0 98.77102133337267 95.17396843441692 89.46762344302006 82.04889059813439 73.40719247951435 64.07131016544074 63.00169320480408 70.69539853524093 78.03063581689926 84.71771183966351 90.47286887421208 95.03806372333895 98.2000864650316 99.8070533346517 99.78049876779045 98.12172626068005 97.24304928415214 99.92926690491261 98.70876985073517 93.72332408760839 87.38217951632937 92.21830022224637 96.00203056812735 98.58544268977863 99.8652121007877 99.78947376204916 98.36130949638037 95.6385399324748 91.72984055394429 86.78754546325106 80.99780293412084 74.56896885932476 67.71924421321482 60.653065971263345 52.729242404304856 44.04316545059993 35.34546819587803 27.253179303401264 20.189651799465537
8.716085146198127 13.265546508012175 19.398004229089185 27.253179303401264 36.78794411714422 47.71139155210344 59.452054797019436 71.17703227626097 81.87307530779819 90.48374180359595 96.07894391523232 98.01986733067552 96.07894391523232 90.84984065246505 83.75921640058833 75.33557903605272 66.10384855085871 64.50544153518001 72.15202390679542 79.38450778824289 85.91283846749025 91.45668433585782 95.76524189957094 98.63599742315853 99.93049626804579 99.58541115854274 97.61767740829582 94.12311528461348 96.7276626126862 99.82542332079244 99.02857582048551 94.42974383921117 93.82382942699576 97.15608057703979 99.24208592113986 99.9978925406477 99.39278885306449 97.4513751198502 94.25190411924116 89.92104797213611 84.62557887292667 78.56172505439014 71.94314773472017 64.98856178541013 57.90998897990033 50.90249904472108 44.04316545059993 36.78794411714422 29.523016692401427 22.763768838381278 16.863814726859555
8.208499862389877 12.493021219858248 18.26835240527347 25.66607769535559 34.64558103300575 44.932896411722155 55.989836656540206 67.03200460356393 77.10515858035663 85.21437889662113 90.48374180359595 92.31163463866358 90.48374180359595 85.21437889662113 77.22687151260976 68.12345716082807 66.00427695077161 73.59316541671438 80.7119726450482 87.07099619239652 92.39407838492433 96.43836422313879 99.01263212400953 99.9922749765069 99.32929794071515 97.05621606201204 93.28341097524108 89.19165795314228 96.17055738906359 99.67561751323215 99.30351977688345 95.26036346366679 98.12114139361971 99.69698268244319 99.9241594373603 98.79342877872914 96.350656764064 92.69373158515066 87.96605557005014 82.34721899173326 76.04170064529231 69.26658417409584 62.23931257683066 55.166428594081175 48.23408195335041 41.60085251355099 35.39317391145781 29.523016692401427 23.692775868212184 18.26835240527347 13.53352832366127
7.4273578214333895 11.304153064044986 16.529888822158657 23.22362747297589 31.348618088260526 40.65696597405991 50.66169923655897 60.653065971263345 69.76763260710311 77.10515858035663 81.87307530779819 83.5270211411272 81.87307530779819 77.10515858035663 69.76763260710311 67.49621171357828 75.01671523618178 82.01093478591753 88.19024590453357 93.28341097524108 97.05621606201204 99.32929794071515 99.9922749765069 99.01263212400953 96.43836422313879 92.39407838492433 87.07099619239652 88.25892987936085 95.57248716076519 99.48005676957101 99.53322277078271 98.89133376376441 99.94732683819471 99.64446912943987 97.99508145740977 95.0658256984457 90.9732346729334 85.87602129761747 79.96487432662863 73.45065431288442 66.55200511708269 59.48338657747865 52.4444208513067 45.611249236366255 39.130347657687246 33.11498110507286 27.64422267612018 22.764248585667072 18.26835240527347 14.0858420921045 10.435048475476501
6.457034689316848 9.827358560436156 14.370394977770298 20.189651799465537 27.253179303401264 35.34546819587803 44.04316545059993 52.729242404304856 60.653065971263345 67.03200460356393 71.17703227626097 72.6149037073691 71.17703227626097 67.03200460356393 68.97922547017474 76.42055702998663 83.27931748987076 89.26869555095035 94.12311528461348 97.61767740829582 99.58541115854274 99.93049626804579 98.63599742315853 95.76524189957094 91.45668433585782 85.91283846749025 84.94184229489088 90.18865017183332 94.93425756619688 99.2390113755299 99.717367668364 99.99157042907015 99.16055059565456 97.00263589101873 93.60460343584398 89.1004598740073 83.66267555440956 77.49124151662625 70.80151560165974 63.81188235110915 56.732199714171806 49.753857297010065 43.042050746468576 36.73061669462139 30.919506300266537 25.674733680331673 21.030442460420712 16.992604065436456 13.53352832366127 10.435048475476501 7.730474044329972
5.393368730035602 8.208499862389877 12.003162851145674 16.863814726859555 22.763768838381278 29.523016692401427 36.78794411714422 44.04316545059993 50.66169923655897 55.989836656540206 59.452054797019436 60.653065971263345 62.750728404734055 70.45126956304554 77.80257107179321 84.51506839280351 90.30450544551948 94.91170230963934 98.12172626068005 99.78049876779045 99.8070533346517 98.2000864650316 95.03806372333895 90.47286887421208 84.71771183966351 87.08619025832225 91.97568447123088 95.82213230163387 98.47538765371598 99.82943961350814 99.85569988075706 98.47538765371598 95.82213230163387 91.97568447123092 87.08619025832225 81.33821199229143 74.93919379514176 68.10711400269811 61.05834165792381 53.99662276200187 47.10394229762117 40.53376832636532 34.40691791952657 28.810024511588182 23.796361071123414 19.388603892215418 15.58301871010157 12.354515311707921 9.662041481969199 7.4273578214333895 5.502322005640725
6.270558746558542 8.414023681687882 11.105453349360348 14.417963681619142 18.41224034436586 23.692775868212184 29.523016692401427 35.34546819587803 41.521037599795676 48.8254518427866 56.47541321593204 64.25510482270144 71.91027152636723 79.1606394672953 85.71616497452523 91.29589348269988 95.64776526185699 98.56744172389915 99.91419991946576 99.62217478986693 97.70569866623363 94.25813529946524 89.44434049548792 83.66267555440956 89.1004598740073 93.60460343584398 97.00263589101871 99.16055059565456 99.99157042907015 99.46193749062869 99.94802795058402 97.36529422031099 91.17232649007153 84.94184229489095 78.91517630480658 72.32167099531345 65.38007865396018 58.30307910196492 51.286918961884744 44.503154312035264 38.092900682694875 32.16372650093611 26.789076503572655 22.009906130374727 17.838063437494245 14.260878627603313 11.246410440700538 8.748843350906823 6.71361477157526 5.081960215617105 3.7628256807176226
8.889795906093298 11.696006271391642 15.13625611024452 19.26790141526452 24.126006285275427 29.714712365355396 35.99918740959274 42.899174761555294 50.28520801055987 57.97845485638543 65.75489615268557 73.35413975344865 80.49265146773534 86.88062003605161 92.24114023452248 96.32998374707324 98.95400681204694 99.98626703747824 99.3762026717482 97.1537377902991 93.42684930148386 88.3728712094686 85.87602129761747 90.9732346729334 95.0658256984457 97.99508145740977 99.64446912943987 99.94732683819471 98.89133376376441 98.24660105610695 99.99422399353249 97.82755512206334 91.9975773683702 83.16115021898959 72.25925666348202 62.632743781325765 55.55728518042527 48.61269069529704 41.959216471059676 35.72515696452748 30.004748256821312 24.858498616872097 20.31556328484173 16.37766214325794 13.0239887671793 10.216571625711293 7.905610639811206 6.034408742273931 4.5436314043116575 3.3747416168993674 2.4723526470339383
12.31035246567768 15.88051574234427 20.150869507667647 25.151161831632024 30.878584638193196 37.2899492806388 44.29566975970525 51.756610350891975 59.484724126030784 67.24812049813426 74.78076832201144 81.79650885555614 88.00648714655874 93.13859391044723 96.95712771050344 99.28071094380279 99.99656658254827 99.06959138842815 96.54520919492973 92.54568132996016 87.26029146468433 87.96605557005014 92.69373158515066 96.350656764064 98.79342877872914 99.9241594373603 99.69698268244319 98.1211413936197 95.26036346366679 97.82755512206334 99.99422399353249 98.24660105610695 92.78741164483881 84.23440085090058 73.50532934017923 61.65624475275533 49.71234131523186 39.47907632358954 33.43545861675595 27.93294021910235 23.019457539168418 18.712964091410793 15.005799840530171 11.869837680058405 9.26188697164455 7.12891176280306 5.412726308450227 4.053946025012058 2.9950834153680788 2.1827748863187892 1.5691990638583126
16.651077133191293 21.06127993307501 26.203678448820323 32.068218601160915 38.60312671296759 45.709366502859986 53.238154876031864 60.99241944940263 68.73276264728689 76.1880419625126 83.07013138331173 89.09186603924078 93.98667516010602 97.52806113123191 99.54695211890296 99.9450794645326 98.7029063192884 95.88121678101042 91.616185551239 86.10848495268657 89.92104797213611 94.25190411924116 97.4513751198502 99.39278885306449 99.9978925406477 99.24208592113986 97.15608057703982 93.82382942699574 91.17232649007153 97.36529422031099 99.94802795058402 98.62185889351444 93.5407923351844 85.28208507008858 74.73834576977679 62.95903428293794 50.9802006094763 39.68020689367569 29.68760898242577 21.35037070926699 17.20122345935829 13.720483894314157 10.795644748049023 8.379089072410844 6.415257533529601 4.845074389304503 3.6095733321459114 2.652652466290259 1.9229761899889544 1.375107100111751 0.9699921239239863
21.999222148773946 27.283373357368685 33.28310844262231 39.937857853109456 47.13903924719776 54.728275006624074 62.49969034793887 70.20677835259768 77.57384115378575 84.31146224640993 90.13490793524623 94.78388169941596 98.04174545046588 99.75223876652606 99.83190110138452 98.27682207777114 95.16295965636223 90.63999013444861 86.78754546325106 91.72984055394429 95.6385399324748 98.36130949638037 99.78947376204916 99.8652121007877 98.58544268977863 96.00203056812735 92.21830022224638 87.38217951632934 90.31273579996298 96.86044866096617 99.85569988075706 98.95281399270277 94.25672452682002 86.30291083528917 75.95693810922893 64.25965075764 52.2562424096209 40.8476334255646 30.691953243303256 22.167211315355587 15.389570528542931 10.270009487229878 7.5647952054806415 5.761134164025939 4.3280061457519245 3.2072795441297375 2.3445247720143976 1.690604042589565 1.2025358884800144 0.8437683977039135 0.5840062976048853
28.390004777836133 34.522681331359216 41.293210136794045 48.583393450796834 56.22534370646679 64.00464083089157 71.6680987966369 78.93604732941021 85.51847356979022 91.13382077490502 95.52879274111925 98.4972427191055 99.89619125764877 99.65724112449422 97.79212044330067 94.39172852834218 89.61879250549198 88.82111011484443 93.38195358381851 96.84535146792996 99.07490619920665 99.98103446464926 99.52693912345929 97.73108846944042 94.66597002967426 90.45323609633603 85.25569408736789 79.80119003269813 89.41991955608846 96.31370450328687 99.717367668364 99.2390113755299 94.93425756619688 87.29560778921224 77.15973604982594 65.55683513666101 53.53947773959328 42.02998038716564 31.715615913561024 23.004670529187756 16.039387923151835 10.749505103970733 6.924972527413713 4.288214933798589 2.843942406348674 2.0679133368073375 1.483245150577652 1.0494520637151485 0.7324556621296966 0.5042769775339175 0.3424727393471303
35.78629632017961 42.66818018851483 50.04106687077163 57.72767586702716 65.50533301339784 73.11463523185374 80.27254817741782 86.68917188826416 92.08687433559871 96.22007321147635 98.89371845127909 99.97854307485972 99.42142273168237 97.2496879711884 93.56890184047684 88.5543544373618 90.71477456017038 94.8676864899571 97.86505841210808 99.5877855600882 99.96628597950098 98.98516349726661 96.68424678162766 93.15590676148668 88.53890421850001 83.00933865536646 76.76952098126428 78.63893530431372 88.49502708217969 95.72580200228714 99.53322277078271 99.48005676957101 95.57248716076519 88.25892987936085 78.34536932954839 66.8493074752158 54.828883013525264 43.226571385893244 32.75827970520321 23.862738897671363 16.708920678437835 11.246189855385348 7.2759772084785315 4.524870502685216 2.7048917222088553 1.5542558853687383 0.9139663434093007 0.6345158331101746 0.4345340263593821 0.2935446582597301 0.19561116503754936
44.06169394006986 51.51063090667134 59.23353093974244 66.99979095374982 74.54428378055186 81.58124301521639 87.82160359996453 92.99240521587113 96.8564777356073 99.23044417169339 99.99914163458527 99.12488169064251 96.65051329074883 92.69594166930825 87.44849699661901 90.48374180359595 96.07894391523232 98.69146082582415 99.89678670518323 99.74531959353415 98.24322248926158 95.45127599999043 91.48079779535354 86.48627936959187 80.65541885621693 74.1974454988992 67.33074531500934 77.45780704524225 87.53924030792292 95.0975339389359 99.30351977688345 99.67561751323215 96.17055738906359 89.19165795314228 79.51247028567845 68.13576889079366 56.12340110042682 44.436690590922126 33.81959005737033 24.741377517746983 17.398360230642016 11.760388445344795 7.641241406074685 4.7723806871923635 2.865069386822287 1.6533473914755232 0.9171111854809316 0.4889999015154341 0.25108767408864785 0.16643259213475403 0.10882293294984789
52.729242404304856 60.74111581299654 68.48600470075013 75.95493038043924 82.86004822095956 88.9138603721646 93.84882166572643 97.43685437483745 99.5067996459156 99.95794875817722 98.76816499713317 95.99568410315169 91.7743893985394 86.30309536627611 83.5270211411272 92.31163463866358 98.01986733067552 100.0 99.31950192090693 97.30566650683097 94.0396050366044 89.65046097167605 84.30693941125935 78.20656042097276 71.56358917862822 64.59666666231188 64.58431826677709 76.25917186542814 86.55377125917845 94.42974383921117 99.02857582048551 99.82542332079244 96.7276626126862 90.09260231974271 80.65967644117586 69.41490361342191 57.421942493157815 45.65958295196108 34.89915457701432 25.64051701129875 18.107877802580504 12.292415674382934 8.021135001750693 5.031104286457824 3.033330408784749 1.7579439487635313 0.9793078460467209 0.524399597751939 0.26991956870307116 0.13354735724991576 0.063513366176531
60.653065971263345 69.76763260710311 77.34445586017912 84.10690270202073 89.9640844786472 94.65460824351277 97.96014810035398 99.72227478402924 99.85504078982628 98.35192919370272 95.28638389176882 90.80586118837908 85.12007356562322 78.48473062740979 81.87307530779819 90.48374180359595 96.07894391523232 98.01986733067552 96.17821261737059 92.45765881278125 87.67547921805884 82.0129569241013 75.67559744374167 68.8808205587052 61.845745902895075 54.77601292440705 63.28444093158447 75.04439961780429 85.53985950558905 93.72332408760839 98.70876985073517 99.92926690491261 97.24304928415214 90.96060527126046 81.78563311811521 70.68538111524033 58.72338658093101 46.89445451605155 35.99654255011337 26.560056533760463 18.83762324687735 12.842575392102667 8.416025576414418 5.301403676053841 3.2099894769000867 1.8682941245276585 1.0452394503532692 0.5621021459365726 0.2905652000922492 0.14437794657437983 0.06895837642096353
67.03200460356393 77.10515858035663 85.21437889662113 90.97047404782221 95.40833028034605 98.42540398851492 99.87647120948647 99.69060836079173 97.87693835618025 94.52388835893977 89.79204325870775 83.90139908772802 77.11442499309238 69.71674774957366 77.10515858035663 85.21437889662113 90.48374180359595 92.31163463866358 90.48374180359595 85.5670988338278 79.6167884277747 73.07546181129996 66.16183593924272 59.08980997323858 52.057907154044344 50.02848627316809 61.98207784498509 73.81486083662246 84.49876957307282 92.97921394100597 98.34454176175446 99.98700445460247 97.71601764500014 91.79454355564398 82.88899607129139 71.94585831495425 60.0265830242218 48.14047284424443 37.111284527087975 27.499862820455235 19.58772389211456 13.411159427808473 8.826277600035636 5.583644314283411 3.3953677059949117 1.984653925730388 1.1150944825741242 0.6022370248105943 0.31264547138791976 0.1560147783426489 0.07483559913410612
71.17703227626097 81.87307530779819 90.48374180359595 96.07894391523232 98.83177012426734 99.96910348640246 99.46495580096638 97.34406175657577 93.70956160416843 88.73468700530633 82.64907747542838 75.72123210043257 68.23896114718481 60.653065971263345 69.76763260710311 77.10515858035663 81.87307530779819 83.5270211411272 81.87307530779819 77.10515858035663 70.41907510547988 63.41906308281911 56.34020107534505 49.372603558283416 42.67983502872826 48.767391509601445 60.678471130285175 72.57192421443833 83.4317883287252 92.19839744907216 97.93639138435901 99.99855596710495 98.14592330875355 92.59333079406031 83.96843413493329 73.19498185240559 61.33035323059983 49.39676752973228 38.24287198595332 28.4597692747298 20.358283395280008 13.998446501410166 9.25225158862888 5.878194214527034 3.58979240065926 2.1072867782058635 1.1890684506545361 0.6449394986809867 0.336248225203146 0.16851165008166583 0.08117620934472963
72.6149037073691 83.5270211411272 92.31163463866358 98.01986733067552 100.0 99.17850020031923 96.75427121239498 92.84485205977077 87.63560396891133 81.36514685662237 74.30727141871274 66.75123247103119 58.98238591481741 52.729242404304856 60.653065971263345 67.03200460356393 71.17703227626097 72.6149037073691 71.17703227626097 67.03200460356393 60.664571331984654 53.60770680492541 46.72920495577413 40.18080379622265 36.55177515157986 47.516123851960465 59.3748387759633 71.31695412407196 82.34022234565795 91.38190128765369 97.4848773430799 99.96390543262439 98.53217872374383 93.35591983542774 85.02263187532348 74.43139042818441 62.633491929633365 50.66243081872541 39.390757076599776 29.4395751019544 21.149380604011096 14.604701116800388 9.694303229299589 6.185423383317726 3.7935967905824404 2.2364634868999937 1.2673639824605458 0.6903507717006637 0.3614657677978327 0.18192544223865145 0.08801336182440463
71.17703227626097 81.87307530779819 90.48374180359595 96.07894391523232 98.01986733067552 96.1086381336817 91.93128820091441 86.49666067727813 80.05167245954338 72.87466162525934 65.2555967773154 57.476994854705445 49.7972561717004 44.04316545059993 50.66169923655897 55.989836656540206 59.452054797019436 60.653065971263345 59.452054797019436 55.989836656540206 50.66169923655897 44.1360834867434 37.7500513172859 31.85006816267925 35.4456490602806 46.27557246461681 58.0723729164234 70.05130819161698 81.22539525527712 90.53079251181688 96.99061578214787 99.88310087130205 98.87425451114488 94.08130504098175 86.05029224200283 75.6537172028991 63.93476884465188 51.93651833505759 40.5543524494329 30.439044493452368 21.96106843223906 15.230172440063916 10.15278247428013 6.50570322391827 4.007119736598393 2.372462176079276 1.3501909113440327 0.7386181389237516 0.38839502908557255 0.196316255830667 0.09538229497775243
67.03200460356393 77.10515858035663 85.21437889662113 90.48374180359595 92.31163463866358 90.48374180359595 85.31977338074725 78.7107411284916 71.4255154340888 63.75405863866831 55.97542052908525 48.34170518645256 41.06592777095578 35.34546819587803 40.65696597405991 44.932896411722155 47.71139155210344 48.67522559599717 47.71139155210344 44.932896411722155 40.65696597405991 35.34546819587803 29.703378920221496 25.18839020925896 34.357116562506775 45.04658884161008 56.772238208361536 68.77633492630886 80.08864509444949 89.64617623541665 96.45427896450695 99.75625422231938 99.17168067395326 94.76852449190747 87.05013921014714 76.8605922504347 65.23293045878715 53.21804990919373 41.733031171426774 31.45790586440289 22.793372752937966 15.875093165031156 10.628032605030333 6.839405905277424 4.2307054066014995 2.51556820844172 1.4377663501769011 0.7898951334740558 0.4171377236027274 0.21174755335246265 0.10332043849462749
60.653065971263345 69.76763260710311 77.10515858035663 81.87307530779819 83.5270211411272 81.87307530779819 77.10515858035663 69.96193454090414 62.24858792950385 54.479394439743444 46.89970510557388 39.713944577739944 33.07889639422062 27.253179303401264 31.348618088260526 34.64558103300575 36.78794411714422 37.531109885139955 36.78794411714422 34.64558103300575 31.348618088260526 27.253179303401264 22.763768838381278 24.299490536341036 33.28662769301329 43.829986237286036 55.475570305144075 67.49337141277941 78.93132165492753 88.7291932442455 95.87659374831607 99.58354108548754 99.42404767304947 95.41666211326192 88.02092040663659 78.05064505925522 66.52670187235012 54.50601051198739 42.926126732449724 32.49585114972259 23.646291311770185 16.53967836883898 11.120389267627424 7.1869036963499475 4.464702920545963 2.666074082067756 1.5303147528834407 0.8443416691310778 0.4478005120493184 0.22828630279609335 0.11186752477030061
52.729242404304856 60.653065971263345 67.03200460356393 71.17703227626097 72.6149037073691 71.17703227626097 67.03200460356393 60.653065971263345 52.990592192630295 45.47260697506078 38.38274287285075 31.868177910308948 26.026365974891867 20.907634764390693 23.22362747297589 25.66607769535559 27.253179303401264 27.803730045319412 27.253179303401264 25.66607769535559 23.22362747297589 20.189651799465537 16.863814726859555 23.431130298138253 32.234593948790106 42.626539199071466 54.18347443122852 66.20374107092958 77.75478384229785 87.78101754996452 95.2583399457707 99.36520031615795 99.63100736689204 96.02484970762747 88.96140971229983 79.22250707555055 67.81478874823989 55.79935129320162 44.13293314451092 33.552535161878026 24.51979266549819 17.224124360310068 11.630179480823859 7.548568265879549 4.709465963800357 2.824279304158156 1.6280679624780445 0.9021241776044927 0.4804951629801779 0.24600312461370027 0.12106570408752211
44.04316545059993 50.66169923655897 55.989836656540206 59.452054797019436 60.653065971263345 59.452054797019436 55.989836656540206 50.66169923655897 44.04316545059993 37.07324342264552 30.68280422892068 24.97839840886996 20.00180554047695 15.754654591401207 16.529888822158657 18.26835240527347 19.398004229089185 19.789869908361467 19.398004229089185 18.26835240527347 16.529888822158657 14.370394977770298 15.712027528477442 22.583363509113838 31.20138874119697 41.43698320095134 52.89702405829427 64.90875148834085 76.56039705158729 86.80285389214042 94.60034856943093 99.10153347476239 99.79227381182605 96.59226889218093 89.87040983280271 80.374814281792 69.0958793417266 57.096990724464426 45.35270513634859 34.627575014510825 25.41381514909841 17.92860752410508 12.157720618306493 7.92476994786338 4.9653523681929945 2.9904902405193465 1.7312652445957348 0.9634157397349498 0.5153387141930288 0.2649724414317026 0.13095966354118477
35.34546819587803 40.65696597405991 44.932896411722155 47.71139155210344 48.67522559599717 47.71139155210344 44.932896411722155 40.65696597405991 35.34546819587803 29.523016692401427 23.957816774666693 19.123399219312105 15.01474693177019 11.595941480579452 11.304153064044986 12.493021219858248 13.265546508012175 13.53352832366127 13.265546508012175 12.493021219858248 11.304153064044986 10.036603678955593 15.07199002520577 21.756214217258226 30.187347920483244 40.26201437593092 51.61725968438714 63.60969232982332 75.34953056650593 85.79593519580595 93.9034999715743 98.792904132758 99.9076239204313 97.11815293313163 90.74675483066824 81.50620980404327 70.36864661060056 58.39781584598022 46.5846584455382 35.72054961566975 26.328265875566114 18.65328316374032 12.703319366847355 8.315876973041563 5.232723660154498 3.165019939774999 1.8401533054861159 1.028396209826693 0.5524536333277312 0.285272630300353 0.14159674967209934
27.253179303401264 31.348618088260526 34.64558103300575 36.78794411714422 37.531109885139955 36.78794411714422 34.64558103300575 31.348618088260526 27.253179303401264 22.763768838381278 18.272273073228224 14.300747618158734 11.009306950066385 8.336740660659176 7.4273578214333895 8.208499862389877 8.716085146198127 8.892161745938635 8.716085146198127 8.208499862389877 7.4273578214333895 9.582263794535269 14.451345356895718 20.949677544523045 29.19277036897549 39.102289345496885 50.34518771702269 62.30783332836396 74.12355498912821 84.76151999202676 93.16872188240274 98.43973703721335 99.97689797578788 97.6017884717748 91.58931261095819 82.61534654117973 71.6317504013392 59.70068361596299 47.827970210040746 36.83099923433992 27.26301977244165 19.398284346696236 13.265546508012175 8.716085146198127 5.502322005640725 3.337326996032607 1.9448214745385404 1.0889023668554452 0.5857689713335614 0.30275547453758134 0.1503439192977573
