1.110899653824231 1.9841094744370291 3.404745473459935 5.613476283413374 8.892161745938635 13.53352832366127 19.789869908361467 27.803730045319412 37.531109885139955 48.67522559599717 60.653065971263345 72.6149037073691 83.5270211411272 92.31163463866358 98.01986733067552 100.0 98.13525268208035 92.74706607206595 84.41612360093063 73.99471823098357 62.46347280002744 50.78104358481741 39.75824515253144 29.978015718271322 21.768507247202688 15.223149227758764 10.25251587990947 6.649767892625063 4.153675958874814 2.4986695776505035 1.4475552056282441 0.8076283061651861 0.43394832707388964 0.22455079401575406 0.11190287944843878 0.05370540779512407 0.024822462628671667 0.011048970206909696 0.004736404985878453 0.002039086595881396 0.0014132097383018887 9.734638921455077E-4 6.664619310539953E-4 4.534956453492783E-4 3.0669957152626535E-4 2.061557685250627E-4 1.3772731716214592E-4 9.14506840262483E-5 6.0352616461359994E-5 3.9586537889026116E-5 2.5807219411120964E-5 1.6721574997827988E-5 1.0768505197578083E-5 6.892486705365637E-6 4.384688307320965E-6 2.7723227545718466E-6 1.742172390884015E-6 1.0881298857707577E-6 6.754802012364635E-7 4.1676072399629673E-7 2.555660835640906E-7 1.557621472825388E-7 9.435456301746552E-8 5.680756365432542E-8 3.3993172181163957E-8 2.021712975420419E-8 1.1950596328533429E-8 7.021047795350446E-9 4.0997422745573885E-9 2.379323296905735E-9 1.3724376763998584E-9
1.0889023668554452 1.9448214745385404 3.337326996032607 5.502322005640725 8.716085146198127 13.265546508012175 19.398004229089185 27.253179303401264 36.78794411714422 47.71139155210344 59.452054797019436 71.17703227626097 81.96945325465985 90.91055111693301 97.10165517924372 99.88242211819781 98.9467622749339 94.39830591403836 86.73150912512563 76.7431631971574 65.39620986407802 53.66801739291049 42.41589301077545 32.28432927368015 23.6649184042062 16.705841042305796 11.357474442128519 7.43610103151491 4.688769521998851 2.847230184359254 1.6650848254335544 0.937778424854573 0.5086443220440895 0.2656918635696599 0.13365721242463321 0.06475251385191137 0.030211407432661104 0.013574860406240934 0.0066669368393523455 0.004716376763420461 0.003316140444298493 0.002317392589568484 0.0016095652472320468 0.0011111171044518604 7.623481556390588E-4 5.198632875008968E-4 3.523442738003357E-4 2.3734908454269872E-4 1.589096160040682E-4 1.0574383808745498E-4 6.993623282971673E-5 4.597181756122744E-5 3.0034706211807496E-5 1.950281836001121E-5 1.2586750915307261E-5 8.073691928513475E-6 5.147222996846015E-6 3.261490126386008E-6 2.0540046687402235E-6 1.2856686639517196E-6 7.998323494944135E-7 4.945510701587147E-7 3.039244228887424E-7 1.8563605457503147E-7 1.126941396907939E-7 6.799588168781794E-8 4.077614460406165E-8 2.4303677071670118E-8 1.439726788086515E-8 8.476771156324235E-9 4.960473186801637E-9
1.0254896296404015 1.831563888873417 3.1429762018367717 5.1818917172725865 8.208499862389877 12.493021219858248 18.26835240527347 25.66607769535559 34.686364525689235 45.14484364424665 56.58581985832605 68.30573394529415 79.40663672315907 88.90097654027757 95.8531415659015 99.53051729629482 99.53051729629482 95.8531415659015 88.90097654027757 79.40663672315907 68.30573394529415 56.58581985832605 45.14484364424665 34.686364525689235 25.66607769535559 18.289857231991483 12.551950456227878 8.295875149084422 5.280357033430052 3.2367895233454353 1.9108021489459188 1.086343255539185 0.5947966501144434 0.31363176745153 0.1592654845253946 0.07788850695763404 0.036683872962772784 0.02034683690106439 0.014693715810143584 0.010545502012081199 0.007522204844480763 0.005332923171761655 0.003757749038747843 0.002631676435619742 0.0018318060339376006 0.0012672688295074096 8.713653668413644E-4 5.954895029916427E-4 4.044736184410537E-4 2.7305401341698964E-4 1.8321001168751378E-4 1.2217774765570504E-4 8.09799120964521E-5 5.334635632114125E-5 3.492806254298489E-5 2.2729323228838513E-5 1.4700793849190419E-5 9.45012045761072E-6 6.0377645802184946E-6 3.834045658426617E-6 2.4198066151983866E-6 1.5179110165844411E-6 9.463553472564399E-7 5.864141510339654E-7 3.611577324034473E-7 2.2107094479854012E-7 1.3449579028944208E-7 8.13257335227919E-8 4.887531407253872E-8 2.919398680278703E-8 1.733163473353974E-8
0.9279013887064737 1.6572675401761259 2.843882471418451 4.688769521998851 7.43610103151491 11.357474442128519 16.705841042305796 23.6649184042062 32.28432927368015 42.41589301077545 53.66801739291049 65.39620986407802 76.7431631971574 86.73150912512563 94.39830591403836 98.9467622749339 99.88242211819781 97.10165517924372 90.91055111693301 81.96945325465985 71.17703227626097 59.522039550328174 47.936444869537084 37.17953298454082 27.771039008470133 19.977006770154087 13.839448860308634 9.233306744016394 5.932610311754045 3.671000730971258 2.1876266720843236 1.2554864752606913 0.6939065031020968 0.36935158466531587 0.18933419862865114 0.09346914177442764 0.05756561714872758 0.0427342470330681 0.031305660974601336 0.022793550176888586 0.016494659055516756 0.011863613429535206 0.00848072351828914 0.006025472337643741 0.004254921608401658 0.002986305976658496 0.002083144123206032 0.001444264067362206 9.952132946207865E-4 6.815975263911231E-4 4.639616844106438E-4 3.138907381951506E-4 2.110654560273953E-4 1.4105812072543703E-4 9.369605396108466E-5 6.185670500229442E-5 4.058770896971219E-5 2.6469428661242485E-5 1.715682300200931E-5 1.1052778040135782E-5 7.076985415281294E-6 4.503678979325428E-6 2.848582662562114E-6 1.7907398610506167E-6 1.118866959651741E-6 6.948109780018032E-7 4.2884185725691005E-7 2.630691604851583E-7 1.6039284233317923E-7 9.719463708331981E-8 5.853854119815609E-8
0.8076283061651861 1.4475552056282441 2.4986695776505035 4.153675958874814 6.649767892625063 10.25251587990947 15.223149227758764 21.768507247202688 29.978015718271322 39.75824515253144 50.78104358481741 62.46347280002744 73.99471823098357 84.41612360093063 92.74706607206595 98.13525268208035 100.0 98.13525268208035 92.74706607206595 84.41612360093063 73.99471823098357 62.46347280002744 50.78104358481741 39.75824515253144 29.978015718271322 21.768507247202688 15.223149227758764 10.25251587990947 6.649767892625063 4.153675958874814 2.4986695776505035 1.4475552056282441 0.8076283061651861 0.43394832707388964 0.22455079401575406 0.1503439192977573 0.11592291739045918 0.08675605030773734 0.06447629388322469 0.047625838448092914 0.034964512461090023 0.025512592564757193 0.01850222611211261 0.013336308980672448 0.009554095712211892 0.006802770201293436 0.004814201764793951 0.0033861410828048256 0.002367162565420959 0.0016447253780643824 0.0011357976796907766 7.795623116325081E-4 5.317934286524595E-4 3.6055985657038167E-4 2.4297078243528948E-4 1.627320165887245E-4 1.0832638102241157E-4 7.167005482681229E-5 4.712848868809896E-5 3.080147849996611E-5 2.0007917507283934E-5 1.2917381519773381E-5 8.288756082535962E-6 5.2862354954487504E-6 3.350780099991384E-6 2.1109970317928297E-6 1.3218177877464406E-6 8.22617293473837E-7 5.088225529739889E-7 3.128074905557073E-7 1.9113059416153194E-7
0.6939065031020968 1.2554864752606913 2.1876266720843236 3.671000730971258 5.932610311754045 9.233306744016394 13.839448860308634 19.977006770154087 27.771039008470133 37.17953298454082 47.936444869537084 59.522039550328174 71.17703227626097 81.96945325465985 90.91055111693301 97.10165517924372 99.88242211819781 98.9467622749339 94.39830591403836 86.73150912512563 76.7431631971574 65.39620986407802 53.66801739291049 42.41589301077545 32.28432927368015 23.6649184042062 16.705841042305796 11.357474442128519 7.43610103151491 4.688769521998851 2.847230184359254 1.6650848254335544 0.937778424854573 0.5086443220440895 0.3624641108965754 0.29088426258125877 0.22443880178246023 0.17025874752081047 0.12836989948917277 0.09619649361143576 0.07164692525704572 0.05303690181226535 0.039021234946676066 0.028534229326646364 0.02073831939507991 0.014980394296540734 0.010755118610547487 0.00767448847345296 0.005442844741413933 0.0038365841495239953 0.0026878546782149147 0.001871583098993295 0.0012952533348570762 8.909279785244232E-4 6.090777717901399E-4 4.1385211308953506E-4 2.794858839957253E-4 1.8759309678877223E-4 1.2514574898408085E-4 8.297698012638529E-5 5.4681626267317424E-5 3.581520931645065E-5 2.331502251354193E-5 1.5085039744625504E-5 9.700616873880616E-6 6.200040412189875E-6 3.938510087830006E-6 2.4866329161110736E-6 1.5603918321455511E-6 9.731906607845821E-7 6.032599182629838E-7
0.5947966501144434 1.086343255539185 1.9108021489459188 3.2367895233454353 5.280357033430052 8.295875149084422 12.551950456227878 18.289857231991483 25.66607769535559 34.686364525689235 45.14484364424665 56.58581985832605 68.30573394529415 79.40663672315907 88.90097654027757 95.8531415659015 99.53051729629482 99.53051729629482 95.8531415659015 88.90097654027757 79.40663672315907 68.30573394529415 56.58581985832605 45.14484364424665 34.686364525689235 25.66607769535559 18.289857231991483 12.551950456227878 8.295875149084422 5.280357033430052 3.2367895233454353 1.9108021489459188 1.086343255539185 0.8066787139099616 0.6737946999085469 0.5407329126440966 0.419701071260035 0.32300187486931375 0.24706560106219835 0.18782863245574585 0.14192326192605395 0.10658292785453426 0.07955435926328569 0.05901774238962227 0.04351544976264348 0.031889421067176696 0.023226943709294425 0.01681433802598069 0.012097893434152797 0.008651312692750015 0.0061488873731607675 0.004343635173908303 0.0030496669863544585 0.002128108515901359 0.0014759695400014998 0.0010174270838521637 6.970620960567448E-4 4.7465921375118943E-4 3.2124371324262E-4 2.16087494080625E-4 1.4446641744894964E-4 9.599452127743942E-5 6.339693549661426E-5 4.1613319182744874E-5 2.714805522581989E-5 1.7603027379884307E-5 1.1344315050454046E-5 7.2662689369064804E-6 4.625800839657912E-6 2.926878318605182E-6 1.8406222965171344E-6
0.5086443220440895 0.937778424854573 1.6650848254335544 2.847230184359254 4.688769521998851 7.43610103151491 11.357474442128519 16.705841042305796 23.6649184042062 32.28432927368015 42.41589301077545 53.66801739291049 65.39620986407802 76.7431631971574 86.73150912512563 94.39830591403836 98.9467622749339 99.88242211819781 97.10165517924372 90.91055111693301 81.96945325465985 71.17703227626097 59.522039550328174 47.936444869537084 37.17953298454082 27.771039008470133 19.977006770154087 13.839448860308634 9.233306744016394 5.932610311754045 3.671000730971258 2.1876266720843236 1.6572675401761259 1.4407591843112353 1.2034232284723767 0.9658106644038952 0.7586966397740964 0.5923611925441621 0.45967121747953843 0.35452780143186563 0.27176627264590403 0.20705374619805345 0.1567880292438733 0.11800080880645006 0.08826719813584204 0.06562298360041725 0.0484903006879165 0.03561197472159485 0.02599438277636662 0.018858417111263872 0.013597943703279297 0.00974503749623321 0.006941224072874174 0.004913951753954713 0.003457546154548798 0.002417950235584893 0.0016806179761581755 0.0011610018849509155 7.971482908514604E-4 5.43985830846381E-4 3.6895918853901597E-4 2.48720365486122E-4 1.6664283218795968E-4 1.1096964662320365E-4 7.344530558207757E-5 4.8313239114149E-5 3.1587157261075006E-5 2.0525663464686745E-5 1.3256416466492455E-5 8.509368849826543E-6 5.42888738455528E-6
0.43394832707388964 0.8076283061651861 1.4475552056282441 2.4986695776505035 4.153675958874814 6.649767892625063 10.25251587990947 15.223149227758764 21.768507247202688 29.978015718271322 39.75824515253144 50.78104358481741 62.46347280002744 73.99471823098357 84.41612360093063 92.74706607206595 98.13525268208035 100.0 98.13525268208035 92.74706607206595 84.41612360093063 73.99471823098357 62.46347280002744 50.78104358481741 39.75824515253144 29.978015718271322 21.768507247202688 15.223149227758764 10.25251587990947 6.649767892625063 4.153675958874814 3.1429762018367717 2.843882471418451 2.4723526470339383 2.065082518171257 1.6636139496964748 1.3258127466371095 1.050156684148894 0.8267387348581153 0.6468815208025921 0.503064276272254 0.3888342260356012 0.2987086278557759 0.22807270970304233 0.1730777146279176 0.1305422986617538 0.09785964445839677 0.07291187815784261 0.05399272062087043 0.03973876918147531 0.029069387820631905 0.021134872602624363 0.015272342561308968 0.010968669564287726 0.007829689218311994 0.005554914373404277 0.003916990225202485 0.0027451740241683687 0.0019121834185805483 0.001323827776313026 9.109104922101533E-4 6.229629150702739E-4 4.234390995654531E-4 2.860632017311375E-4 1.9207697475491243E-4 1.2818313611021433E-4 8.502149803544345E-5 5.60491314212199E-5 3.672411130764495E-5 2.391530793986782E-5 1.547900119418744E-5
0.36935158466531587 0.6939065031020968 1.2554864752606913 2.1876266720843236 3.671000730971258 5.932610311754045 9.233306744016394 13.839448860308634 19.977006770154087 27.771039008470133 37.17953298454082 47.936444869537084 59.522039550328174 71.17703227626097 81.96945325465985 90.91055111693301 97.10165517924372 99.88242211819781 98.9467622749339 94.39830591403836 86.73150912512563 76.7431631971574 65.39620986407802 53.66801739291049 42.41589301077545 32.28432927368015 23.6649184042062 16.705841042305796 11.357474442128519 7.43610103151491 5.502322005640725 5.1818917172725865 4.688769521998851 4.07622039783662 3.404745473459935 2.7701230228091402 2.2396603742871357 1.7997308027662449 1.4373919470966463 1.1409986726229195 0.9001965518290698 0.7058815408608644 0.5501341172851811 0.4261353939434138 0.3280718061890771 0.2510339652033835 0.19091424597426487 0.14430668863728693 0.1084118760568545 0.08094863554226266 0.060073713596021046 0.04430999497236178 0.032483378748066206 0.023668076546548854 0.017139849672708804 0.012336538716549368 0.008825146380367693 0.006274697352754479 0.00443410449078392 0.0031143063915486983 0.0021739974237439926 0.0015083390931039215 0.001040114673992171 7.128624417002607E-4 4.855931125614666E-4 3.2876197202770415E-4 2.212243407117434E-4 1.4795393366492983E-4 9.8347289978491E-5 6.497414183724351E-5 4.266394209682721E-5
0.31363176745153 0.5947966501144434 1.086343255539185 1.9108021489459188 3.2367895233454353 5.280357033430052 8.295875149084422 12.551950456227878 18.289857231991483 25.66607769535559 34.686364525689235 45.14484364424665 56.58581985832605 68.30573394529415 79.40663672315907 88.90097654027757 95.8531415659015 99.53051729629482 99.53051729629482 95.8531415659015 88.90097654027757 79.40663672315907 68.30573394529415 56.58581985832605 45.14484364424665 34.686364525689235 25.66607769535559 18.289857231991483 12.551950456227878 8.892161745938635 8.716085146198127 8.208499862389877 7.4273578214333895 6.457034689316848 5.40302775872695 4.458938750868347 3.657363184741892 2.9815832857954345 2.415839486847906 1.945501096791304 1.5571740530953364 1.2387541179468582 0.9794343652815184 0.7696758125743296 0.6011496711308284 0.46665901815114413 0.3600468255177853 0.2760962979840025 0.21042844935957664 0.15940083807002722 0.12001043779940519 0.08980276606189823 0.06678865253801933 0.049369408464938896 0.03627065844481458 0.026484710485346095 0.01922105821820616 0.013864417649713036 0.009939584840212085 0.007082345865015607 0.005015662348364211 0.0035303822195531355 0.0024697752608452586 0.0017172574894003582 0.0011867402607351907 8.151137280096694E-4 5.564459846614785E-4 3.7754619033482405E-4 2.546006135529207E-4 1.706440199998221E-4 1.1367500327195053E-4
0.2656918635696599 0.5086443220440895 0.937778424854573 1.6650848254335544 2.847230184359254 4.688769521998851 7.43610103151491 11.357474442128519 16.705841042305796 23.6649184042062 32.28432927368015 42.41589301077545 53.66801739291049 65.39620986407802 76.7431631971574 86.73150912512563 94.39830591403836 98.9467622749339 99.88242211819781 97.10165517924372 90.91055111693301 81.96945325465985 71.17703227626097 59.522039550328174 47.936444869537084 37.17953298454082 27.771039008470133 19.977006770154087 13.839448860308634 13.53352832366127 13.265546508012175 12.493021219858248 11.304153064044986 9.827358560436156 8.287091284834416 6.938249346890524 5.773510477458523 4.774988029837333 3.925065335170761 3.206740135058766 2.603891708165813 2.1014755620909904 1.685652478466235 1.3438599680470942 1.064834870551703 0.8385959999058328 0.6563954808874111 0.5106468442920207 0.3948371391446594 0.3034293695339449 0.23176054690526218 0.17593962965723547 0.13274865025477214 0.09954944168337372 0.0741975931014676 0.05496460107541517 0.04046864071050698 0.029613956105025298 0.021538552517695476 0.015569650821038386 0.01118622385920952 0.007987859432514934 0.005669171501900626 0.003998996748753716 0.002803656354510259 0.0019536231135162023 0.0013530039449149737 9.313214700789438E-4 6.371511059397242E-4 4.3323899692197576E-4 2.927891076959217E-4
0.22455079401575406 0.43394832707388964 0.8076283061651861 1.4475552056282441 2.4986695776505035 4.153675958874814 6.649767892625063 10.25251587990947 15.223149227758764 21.768507247202688 29.978015718271322 39.75824515253144 50.78104358481741 62.46347280002744 73.99471823098357 84.41612360093063 92.74706607206595 98.13525268208035 100.0 98.13525268208035 92.74706607206595 84.41612360093063 73.99471823098357 62.46347280002744 50.78104358481741 39.75824515253144 29.978015718271322 21.768507247202688 19.398004229089185 19.789869908361467 19.398004229089185 18.26835240527347 16.529888822158657 14.377852172469957 12.287201866016545 10.436484843569241 8.810443576568753 7.39236795687318 6.164695808530972 5.109542329964773 4.209152156699017 3.4462717767059363 2.8044435043177725 2.268225046748938 1.8233408507928441 1.4567729095989725 1.1567995878789947 0.912991360559606 0.7161722427603698 0.5583552135174543 0.43265919772054445 0.3332142606629466 0.2550606681282787 0.1940464403519586 0.14672703505920467 0.11026987374157134 0.0823656038939416 0.06114728387894352 0.04511809232534089 0.03308769856449389 0.024117076816386016 0.01747129299262312 0.012579625180690612 0.009002282338399227 0.006402945895878538 0.004526362256576059 0.0031802485220619155 0.002220828817924664 0.0015413859047647036 0.001063285658787509 7.290054976461665E-4
0.18933419862865114 0.36935158466531587 0.6939065031020968 1.2554864752606913 2.1876266720843236 3.671000730971258 5.932610311754045 9.233306744016394 13.839448860308634 19.977006770154087 27.771039008470133 37.17953298454082 47.936444869537084 59.522039550328174 71.17703227626097 81.96945325465985 90.91055111693301 97.10165517924372 99.88242211819781 98.9467622749339 94.39830591403836 86.73150912512563 76.7431631971574 65.39620986407802 53.66801739291049 42.41589301077545 32.28432927368015 25.66607769535559 27.253179303401264 27.803730045319412 27.253179303401264 25.66607769535559 23.22362747297589 20.313153884002883 17.611234931391866 15.175553378163883 12.9969526526836 11.06320121026707 9.359709282601901 7.870207486609029 6.577370084109522 5.463370450894829 4.510360905982557 3.700873265845597 3.0181401743187823 2.4463403205908762 1.9707730497743887 1.5779695924026944 1.25574922716582 0.9932292096655193 0.7807973323168169 0.6100556204690012 0.4737430138053491 0.3656440229731787 0.28048937370218063 0.2138536272880793 0.16205375673295774 0.122051707555406 0.09136311332080714 0.06797358802167286 0.05026338972859447 0.036940743031151406 0.026983715771858895 0.01959025796085863 0.01413581425673139 0.010137801403269574 0.007226183781858329 0.005119369777254339 0.0036046763057752435 0.0025226576569939347 0.0017546586328506916
0.1592654845253946 0.31363176745153 0.5947966501144434 1.086343255539185 1.9108021489459188 3.2367895233454353 5.280357033430052 8.295875149084422 12.551950456227878 18.289857231991483 25.66607769535559 34.686364525689235 45.14484364424665 56.58581985832605 68.30573394529415 79.40663672315907 88.90097654027757 95.8531415659015 99.53051729629482 99.53051729629482 95.8531415659015 88.90097654027757 79.40663672315907 68.30573394529415 56.58581985832605 45.14484364424665 34.686364525689235 34.64558103300575 36.78794411714422 37.531109885139955 36.78794411714422 34.64558103300575 31.34894999703809 27.742567392076477 24.401278087367988 21.331469432088724 18.53408907952152 16.005306417240433 13.73722508084692 11.71861562077907 9.935640718029529 8.372549465311497 7.012321826473646 5.837249158199672 4.829441357825813 3.971255568501802 3.2456452589349585 2.6364317846669127 2.1285031684781255 1.7079467934952228 1.3621240081632617 1.0796953529784363 0.8506053124538211 0.6660352632106651 0.5183327266252711 0.4009242368699886 0.3082181903730504 0.23550302795971628 0.1788450805671024 0.13498943388408333 0.10126627322350903 0.0755043812719375 0.05595279075936756 0.041211044935692775 0.030168087178647312 0.021949478002592834 0.015872410705740195 0.011407851593408382 0.008149052337153436 0.005785656232214999 0.004082633717992747
0.13365721242463321 0.2656918635696599 0.5086443220440895 0.937778424854573 1.6650848254335544 2.847230184359254 4.688769521998851 7.43610103151491 11.357474442128519 16.705841042305796 23.6649184042062 32.28432927368015 42.41589301077545 53.66801739291049 65.39620986407802 76.7431631971574 86.73150912512563 94.39830591403836 98.9467622749339 99.88242211819781 97.10165517924372 90.91055111693301 81.96945325465985 71.17703227626097 59.522039550328174 47.936444869537084 40.65696597405991 44.932896411722155 47.71139155210344 48.67522559599717 47.71139155210344 44.932896411722155 40.796674569381956 36.62704545636956 32.682952653166566 28.985644155895773 25.549764521521332 22.38376416790603 19.490438734157202 16.86756464196713 14.508597252414404 12.4033997633108 10.538973961642059 8.900167822758473 7.470339412033007 6.231961286651553 5.1671543350265425 4.258144491036973 3.487639832112411 2.839129080122788 2.29710539136662 1.8472215151556999 1.476383930708633 1.1727944848229865 0.925948419012125 0.7265975817418762 0.5666871643423949 0.439273574079929 0.33843015558584016 0.2591464737198531 0.1972258460713141 0.14918481705678957 0.11215733940760148 0.08380560099871492 0.06223872187746107 0.045939954441911256 0.03370254746231175 0.02457407457407821 0.017808768517622555 0.012827229942112862 0.009182779272131514
0.11190287944843878 0.22455079401575406 0.43394832707388964 0.8076283061651861 1.4475552056282441 2.4986695776505035 4.153675958874814 6.649767892625063 10.25251587990947 15.223149227758764 21.768507247202688 29.978015718271322 39.75824515253144 50.78104358481741 62.46347280002744 73.99471823098357 84.41612360093063 92.74706607206595 98.13525268208035 100.0 98.13525268208035 92.74706607206595 84.41612360093063 73.99471823098357 62.46347280002744 50.78104358481741 50.66169923655897 55.989836656540206 59.452054797019436 60.653065971263345 59.452054797019436 55.989836656540206 51.32305217044966 46.745851146322494 42.31710429649189 38.07422622335931 34.047756807233235 30.26134289521476 26.731920636855378 23.470071015188932 20.480517132577496 17.762729703380526 15.311606874619738 13.11819574741729 11.170425545613396 9.453825971341798 7.952208580543648 6.648293689061485 5.524270090090459 4.562279472371148 3.7448216694410084 3.0550805904194522 2.477173782952895 1.996331010840486 1.5990089894571857 1.2729505457892836 1.0071970197009588 0.7920627814609418 0.6190804009108285 0.4809243624207138 0.37132037017778396 0.2849463154926948 0.2173299553326717 0.1647473394972802 0.12412506907243698 0.09294860380535946 0.0691780812429594 0.051172475605090195 0.037622410466356455 0.027491540800430425 0.01996612653228641
0.09346914177442764 0.18933419862865114 0.36935158466531587 0.6939065031020968 1.2554864752606913 2.1876266720843236 3.671000730971258 5.932610311754045 9.233306744016394 13.839448860308634 19.977006770154087 27.771039008470133 37.17953298454082 47.936444869537084 59.522039550328174 71.17703227626097 81.96945325465985 90.91055111693301 97.10165517924372 99.88242211819781 98.9467622749339 94.39830591403836 86.73150912512563 76.7431631971574 65.39620986407802 53.66801739291049 60.653065971263345 67.03200460356393 71.17703227626097 72.6149037073691 71.17703227626097 67.13428062966891 62.41459174901344 57.672689243909524 52.965923083352486 48.346513708393765 43.860749964207116 39.54842734743686 35.442525256838785 31.569112355278765 27.94746096044468 24.590344873154066 21.50449039346107 18.691147509996142 16.1467473081406 13.863612362568507 11.830689019604456 10.034273744428743 8.458709791047024 7.087035029811409 5.9015665359948235 4.884412234696418 4.017904288329248 3.2849528309789875 2.669321980937387 2.1558327329904756 1.7304993273855902 1.3806070349722284 1.0947400417590702 0.8627683376981788 0.6758023043472274 0.526123150336689 0.4070965572873931 0.31307596041356783 0.2393008754843372 0.1817946622432217 0.1372651350608182 0.10301053197833036 0.07683255798681572 0.056957540664724554 0.04196618004230097
0.07788850695763404 0.1592654845253946 0.31363176745153 0.5947966501144434 1.086343255539185 1.9108021489459188 3.2367895233454353 5.280357033430052 8.295875149084422 12.551950456227878 18.289857231991483 25.66607769535559 34.686364525689235 45.14484364424665 56.58581985832605 68.30573394529415 79.40663672315907 88.90097654027757 95.8531415659015 99.53051729629482 99.53051729629482 95.8531415659015 88.90097654027757 79.40663672315907 68.30573394529415 60.653065971263345 69.76763260710311 77.10515858035663 81.87307530779819 83.5270211411272 81.87307530779819 77.79478266659817 73.37459870741294 68.78334313437374 64.08598972176432 59.34514363618567 54.61972999805925 49.9638834600101 45.42606296591007 41.0484048032079 36.866316275702616 32.9083023461419 29.196008877210573 25.74445897162856 22.562453589279496 19.65310418843638 17.014463568548425 14.640221250220725 12.520431397832517 10.64224419641239 8.990615426998275 7.548973423003049 6.299827323814325 5.225305288854401 4.307615854876781 3.529429720500596 2.8741827877207657 2.3263041965903266 1.8713753222026859 1.496227271348754 1.1889853635440686 0.9390694771890418 0.7371590729943989 0.5751312684759865 0.4459796254105742 0.3437204179193967 0.2632921543213318 0.2004531009282418 0.15168055674367295 0.11407469683374809 0.0852689679510942
0.06475251385191137 0.13365721242463321 0.2656918635696599 0.5086443220440895 0.937778424854573 1.6650848254335544 2.847230184359254 4.688769521998851 7.43610103151491 11.357474442128519 16.705841042305796 23.6649184042062 32.28432927368015 42.41589301077545 53.66801739291049 65.39620986407802 76.7431631971574 86.73150912512563 94.39830591403836 98.9467622749339 99.88242211819781 97.10165517924372 90.91055111693301 81.96945325465985 71.17703227626097 67.03200460356393 77.10515858035663 85.21437889662113 90.48374180359595 92.31163463866358 90.51823662172418 87.14501534191734 83.38564464488977 79.30166478554872 74.95758617136676 70.41921102087885 65.75200360264705 61.01956420942676 56.2822545706668 51.59601315949851 47.011388409672215 42.57280685530718 38.3180822612213 34.27816149215801 30.47709366025286 26.93220136929587 23.65442689817958 20.648822065023584 17.915148297282126 15.448553002404347 13.240289498815732 11.278450270924417 9.548686854039888 8.03489391599722 6.719839765715198 5.585730291071873 4.614697952796272 3.789211728404861 3.092407654268619 2.5083427523301287 2.022177599685965 1.620294598706343 1.290360165019245 1.021339632112429 0.8034737561059501 0.6282253853426928 0.48820423331051455 0.37707685361238574 0.2894679479285004 0.22085811655224186 0.167482147241653
0.05370540779512407 0.11190287944843878 0.22455079401575406 0.43394832707388964 0.8076283061651861 1.4475552056282441 2.4986695776505035 4.153675958874814 6.649767892625063 10.25251587990947 15.223149227758764 21.768507247202688 29.978015718271322 39.75824515253144 50.78104358481741 62.46347280002744 73.99471823098357 84.41612360093063 92.74706607206595 98.13525268208035 100.0 98.13525268208035 92.74706607206595 84.41612360093063 73.99471823098357 71.17703227626097 81.87307530779819 90.48374180359595 96.07894391523232 98.01986733067552 96.61857717187601 94.36709287699901 91.60576138610786 88.38270218580608 84.75279633156816 80.77613537822592 76.51637380089146 72.03904771567997 67.40992135662306 62.69341856285937 57.95118984340042 53.24085690763194 48.614966458809135 44.1201741712882 39.79666873857153 35.677835278735 31.790147733850173 28.15327161827048 24.780351857349412 21.678455688273676 18.849137719394854 16.289093200985715 13.9908661886686 11.943581344807926 10.133671334908694 8.545575820020328 7.162392602573137 5.9664662483352755 4.939904210157644 4.065014893130537 3.3246660504302668 2.702565263227341 2.1834669678737875 1.753312528375159 1.39931123189637 1.1099708620797746 0.8750867548295382 0.6856980538105975 0.534019354255756 0.41335514900981263 0.31800355900336064
0.044438310013910416 0.09346914177442764 0.18933419862865114 0.36935158466531587 0.6939065031020968 1.2554864752606913 2.1876266720843236 3.671000730971258 5.932610311754045 9.233306744016394 13.839448860308634 19.977006770154087 27.771039008470133 37.17953298454082 47.936444869537084 59.522039550328174 71.17703227626097 81.96945325465985 90.91055111693301 97.10165517924372 99.88242211819781 98.9467622749339 94.39830591403836 86.73150912512563 76.7431631971574 72.6149037073691 83.5270211411272 92.31163463866358 98.01986733067552 100.0 99.69448564677177 98.78353153043685 97.28373442469622 95.22219599394359 92.63570826411177 89.56966170548232 86.07672119397216 82.21532377517072 78.04805799725504 73.63998737548737 69.05698026180255 64.36410516227393 59.62414468493016 54.896273261814656 50.234934126465724 45.688940356214246 41.30081374031754 37.10636441807216 33.13450419230449 29.40727761840232 25.94008774039962 22.742087913035913 19.816707606328468 17.162278412883886 14.772726539991323 12.638299656593693 10.746298807033671 9.08178989046619 7.628273616276466 6.36829757032883 5.283998780206267 4.357569706327407 3.5716447159877958 2.9096076786137814 2.355824265985673 1.8958048138778543 1.516305207997386 1.2053742392292146 0.9523562994179079 0.7478582450353967 0.5836888368224795
0.036683872962772784 0.07788850695763404 0.1592654845253946 0.31363176745153 0.5947966501144434 1.086343255539185 1.9108021489459188 3.2367895233454353 5.280357033430052 8.295875149084422 12.551950456227878 18.289857231991483 25.66607769535559 34.686364525689235 45.14484364424665 56.58581985832605 68.30573394529415 79.40663672315907 88.90097654027757 95.8531415659015 99.53051729629482 99.53051729629482 95.8531415659015 88.90097654027757 79.40663672315907 71.17703227626097 81.87307530779819 90.48374180359595 96.07894391523232 98.32024980596262 99.44148084929492 99.9618918580215 99.87197191480139 99.17336673933822 97.8788285903789 96.01182908991493 93.60585139345292 90.7033915294161 87.35471051768722 83.61638844001028 79.54973850643715 75.21914304778369 70.6903741567639 66.02895948045449 61.29864868945408 56.56002882049137 51.86932753172731 47.27743292211648 42.829147579194526 38.56268355477616 34.50939459743771 30.693732684766346 27.133408081712073 23.839726067745755 20.81806926291604 18.06849215761424 15.58639391955612 13.363236629383014 11.387278529483847 9.644295360518397 8.11826708763507 6.792011966563208 5.647754673043986 4.667619858363257 3.8340467869341395 3.1301244994814037 2.539850121919771 2.048315451498865 1.6418287902200652 1.3079801913578701 1.0356588982524362
0.030211407432661104 0.06475251385191137 0.13365721242463321 0.2656918635696599 0.5086443220440895 0.937778424854573 1.6650848254335544 2.847230184359254 4.688769521998851 7.43610103151491 11.357474442128519 16.705841042305796 23.6649184042062 32.28432927368015 42.41589301077545 53.66801739291049 65.39620986407802 76.7431631971574 86.73150912512563 94.39830591403836 98.9467622749339 99.88242211819781 97.10165517924372 90.91055111693301 81.96945325465985 71.17703227626097 77.10515858035663 85.21437889662113 90.48374180359595 93.4484050210544 95.88484613119881 97.78457042239162 99.11353427234704 99.8476545437805 99.97353447150556 99.48887029149714 98.40252136772372 96.73424083428225 94.51407819485408 91.78147912233742 88.58412013376426 84.9765262248393 81.01852741270834 76.77361509716391 72.30726103522365 67.68526054675334 62.97215752542691 58.229802276122555 53.5160846225074 48.88387470360835 44.38019303029244 40.04562033126432 35.9139470770218 32.012052851702066 28.359997371007807 24.971298226882812 21.85336555868848 19.00806086457922 16.432346019137142 14.118989099207663 12.057295607053236 10.233836832757138 8.633151101727242 7.238398188080959 6.031951935556683 4.995920840993547 4.112590791753972 3.364788129314991 2.7361646121904246 2.211408600691215 1.7763888603351554
0.024822462628671667 0.05370540779512407 0.11190287944843878 0.22455079401575406 0.43394832707388964 0.8076283061651861 1.4475552056282441 2.4986695776505035 4.153675958874814 6.649767892625063 10.25251587990947 15.223149227758764 21.768507247202688 29.978015718271322 39.75824515253144 50.78104358481741 62.46347280002744 73.99471823098357 84.41612360093063 92.74706607206595 98.13525268208035 100.0 98.13525268208035 92.74706607206595 84.41612360093063 73.99471823098357 69.76763260710311 77.10515858035663 81.97803021015984 85.85918461609062 89.37546511153646 92.46814473728715 95.08417604477414 97.17770199501791 98.71139204329802 99.6575490605626 99.99894124435552 99.7293241097417 98.8536304679626 97.38782031752493 95.358397029825 92.80161032064733 89.76237949452226 86.29298163937527 82.45155826123349 78.30049986442789 73.90477096141014 69.33023788637924 64.64205872211444 59.9031889324816 55.17304836811151 50.50638572893062 45.952365937259394 41.553894831711155 37.34718474573587 33.36155443652852 29.61944794155407 26.13664961124305 22.922667024357782 19.981249838522764 17.311010844949177 14.906115461104058 12.757007400419093 10.851141034489528 9.173694703475569 7.708243613939208 6.437375677626396 5.343238403531162 4.408009512809581 3.6142881047212314 2.9454068182222874
0.02034683690106439 0.044438310013910416 0.09346914177442764 0.18933419862865114 0.36935158466531587 0.6939065031020968 1.2554864752606913 2.1876266720843236 3.671000730971258 5.932610311754045 9.233306744016394 13.839448860308634 19.977006770154087 27.771039008470133 37.17953298454082 47.936444869537084 59.522039550328174 71.17703227626097 81.96945325465985 90.91055111693301 97.10165517924372 99.88242211819781 98.9467622749339 94.39830591403836 86.73150912512563 76.7431631971574 65.39620986407802 67.03200460356393 71.77030952608355 76.25837962399822 80.53276321720307 84.52786556856657 88.17987496300196 91.42844402712379 94.2183410303886 96.50100835455547 98.2359668384009 99.39200930961981 99.94813415376501 99.8941799040598 99.23113406192007 97.97110303519057 96.13694447269967 93.7615775955591 90.88700059811183 87.563056091403 83.8459952700901 79.79689852341781 75.48001427712305 70.96107882735552 66.30567787945137 61.57770567938508 56.83797042192411 52.14298555355582 47.54397625538789 43.086119421980115 38.80802446939339 34.741451885665754 30.91125707546114 27.335539139036403 24.025968035054337 20.98825925250009 18.222762682245186 15.725131746296745 13.487039832470504 11.496913443648554 9.740654907247563 8.202331683539194 6.864813943377464 5.710346859399848 4.721048708317355
0.016638994291969123 0.036683872962772784 0.07788850695763404 0.1592654845253946 0.31363176745153 0.5947966501144434 1.086343255539185 1.9108021489459188 3.2367895233454353 5.280357033430052 8.295875149084422 12.551950456227878 18.289857231991483 25.66607769535559 34.686364525689235 45.14484364424665 56.58581985832605 68.30573394529415 79.40663672315907 88.90097654027757 95.8531415659015 99.53051729629482 99.53051729629482 95.8531415659015 88.90097654027757 79.40663672315907 68.30573394529415 56.58581985832605 60.74046415678435 65.47482294660784 70.14760264007374 74.69535708972424 79.05269069965486 83.15377678075987 86.93398267374819 90.33154686389994 93.28924803396079 95.75600344073503 97.68833443148294 99.05164044001332 99.82122933431619 99.98306125477806 99.53417463656908 98.48277635493912 96.84799215979415 94.6592880027485 91.95558671864005 88.78411705546839 85.19904259086431 81.25992609879363 77.03009006921545 72.57493615055648 67.9602852839882 63.25079641528599 58.508515252136895 53.791596061219806 49.15322954254659 44.64079900150763 40.29527599216707 36.15085592534062 32.23482434940361 28.567636151098817 25.163183102505066 22.02922018857765 19.167918052662564 16.576507645025895 14.247983602072825 12.171834793238673 10.334773565321752 8.721439176790774 7.315055426974642
0.013574860406240934 0.030211407432661104 0.06475251385191137 0.13365721242463321 0.2656918635696599 0.5086443220440895 0.937778424854573 1.6650848254335544 2.847230184359254 4.688769521998851 7.43610103151491 11.357474442128519 16.705841042305796 23.6649184042062 32.28432927368015 42.41589301077545 53.66801739291049 65.39620986407802 76.7431631971574 86.73150912512563 94.39830591403836 98.9467622749339 99.88242211819781 97.10165517924372 90.91055111693301 81.96945325465985 71.17703227626097 59.522039550328174 49.693243014276774 54.3434290910333 59.066197372156736 63.807724852810146 68.5093395734396 73.10861835678017 77.54068728595318 81.73969065784237 85.64038433185738 89.17980113420225 92.29892983541119 94.9443456596521 97.06972963810472 98.63721655070744 99.61851669243889 99.9957650446794 99.7620622406117 98.9216844381136 97.48995318046792 95.49277077849709 92.96584089910907 89.95360712648564 86.50795357599021 82.68672060632557 78.55209486412492 74.16893605577239 69.60310291105883 64.91983790546067 60.18226473583515 55.45004473487499 50.778228906883406 46.21633168147652 41.80764144535943 37.588772038340544 33.58944924383774 29.832517333654103 26.334143298835933 23.104190747258873 20.146731682895346 17.46066249066798 15.040390317698938 12.876557463456233 10.956774101140283
0.011048970206909696 0.024822462628671667 0.05370540779512407 0.11190287944843878 0.22455079401575406 0.43394832707388964 0.8076283061651861 1.4475552056282441 2.4986695776505035 4.153675958874814 6.649767892625063 10.25251587990947 15.223149227758764 21.768507247202688 29.978015718271322 39.75824515253144 50.78104358481741 62.46347280002744 73.99471823098357 84.41612360093063 92.74706607206595 98.13525268208035 100.0 98.13525268208035 92.74706607206595 84.41612360093063 73.99471823098357 62.46347280002744 50.78104358481741 43.60192786684381 48.078525274698315 52.6912932454137 57.39431170636406 62.135689256662054 66.85835124840077 71.5010597842711 75.99964601264412 80.28842417396879 84.30174663607556 87.97565027933807 91.24953764382924 94.06783173429659 96.3815416765891 98.1496777571279 99.34045880290142 99.93226223243367 99.91427710189099 99.28683259001147 98.06138797702323 96.2601845437797 93.91557416514243 91.06905291488576 87.77004001023538 84.07445227587412 80.04313151413652 75.74018641440354 71.23131179069344 66.58214606081515 61.856723209108935 57.11606839759868 52.41697741805922 47.81100990183513 43.34371525492669 39.05409928740039 34.974329038363976 31.12966386206572 27.538592835065685 24.21315224732308 21.159392504193256 18.377961221875736 15.864768564513387
0.008971940057375536 0.02034683690106439 0.044438310013910416 0.09346914177442764 0.18933419862865114 0.36935158466531587 0.6939065031020968 1.2554864752606913 2.1876266720843236 3.671000730971258 5.932610311754045 9.233306744016394 13.839448860308634 19.977006770154087 27.771039008470133 37.17953298454082 47.936444869537084 59.522039550328174 71.17703227626097 81.96945325465985 90.91055111693301 97.10165517924372 99.88242211819781 98.9467622749339 94.39830591403836 86.73150912512563 76.7431631971574 65.39620986407802 53.66801739291049 42.41589301077545 37.83112099282977 42.06204686625814 46.48082948068582 51.05045422438022 55.727251712699875 60.4613603956108 65.1974301737589 69.87556221210002 74.43246924045275 78.80282960302638 82.92079777923614 86.7216246784991 90.14333331966047 93.1283900801705 95.62530897031039 97.59012663774253 98.9876891499917 99.79269796321861 99.99047160273656 99.57739101594207 98.56100972274902 96.9598240794633 94.80271341845956 92.12807374016239 88.98268126322736 85.42033281603942 81.50031823828638 77.28578527715497 72.84205971226957 68.23498261965361 63.529322963170976 58.78731742094385 54.06738098649162 49.42302199779517 44.901984463461574 40.545629504764094 36.38855701530525 32.45845878888185 28.77618581761382 25.356005538353664 22.206019703037715
0.0072682365752909164 0.016638994291969123 0.036683872962772784 0.07788850695763404 0.1592654845253946 0.31363176745153 0.5947966501144434 1.086343255539185 1.9108021489459188 3.2367895233454353 5.280357033430052 8.295875149084422 12.551950456227878 18.289857231991483 25.66607769535559 34.686364525689235 45.14484364424665 56.58581985832605 68.30573394529415 79.40663672315907 88.90097654027757 95.8531415659015 99.53051729629482 99.53051729629482 95.8531415659015 88.90097654027757 79.40663672315907 68.30573394529415 56.58581985832605 45.14484364424665 34.686364525689235 34.64558103300575 36.78794411714422 40.545629504764094 44.901984463461595 49.42302199779517 54.06738098649162 58.78731742094385 63.529322963170976 68.23498261965368 72.84205971226957 77.28578527715497 81.50031823828638 85.42033281603942 88.98268126322742 92.12807374016239 94.80271341845956 96.9598240794633 98.56100972274902 99.57739101594208 99.99047160273656 99.79269796321861 98.9876891499917 97.59012663774253 95.62530897031036 93.1283900801705 90.14333331966047 86.7216246784991 82.92079777923614 78.80282960302631 74.43246924045275 69.87556221210002 65.1974301737589 60.4613603956108 55.72725171269979 51.05045422438022 46.480829480685784 42.06204686625814 37.83112099282977 33.81818469918405 30.0464832062677
0.005874215526989726 0.013574860406240934 0.030211407432661104 0.06475251385191137 0.13365721242463321 0.2656918635696599 0.5086443220440895 0.937778424854573 1.6650848254335544 2.847230184359254 4.688769521998851 7.43610103151491 11.357474442128519 16.705841042305796 23.6649184042062 32.28432927368015 42.41589301077545 53.66801739291049 65.39620986407802 76.7431631971574 86.73150912512563 94.39830591403836 98.9467622749339 99.88242211819781 97.10165517924372 90.91055111693301 81.96945325465985 71.17703227626097 59.522039550328174 47.936444869537084 40.65696597405991 44.932896411722155 47.71139155210344 48.67522559599717 47.71139155210344 44.932896411722155 43.34371525492669 47.811009901835156 52.41697741805922 57.116068397598774 61.856723209108935 66.58214606081515 71.23131179069344 75.74018641440354 80.04313151413658 84.07445227587412 87.77004001023538 91.06905291488576 93.91557416514243 96.26018454377973 98.06138797702323 99.28683259001147 99.91427710189099 99.93226223243367 99.34045880290141 98.1496777571279 96.3815416765891 94.06783173429659 91.24953764382924 87.975650279338 84.30174663607556 80.28842417396879 75.99964601264412 71.5010597842711 66.85835124840068 62.135689256662054 57.39431170636406 52.6912932454137 48.078525274698315 43.60192786684377 39.30090220804004
0.004736404985878453 0.011048970206909696 0.024822462628671667 0.05370540779512407 0.11190287944843878 0.22455079401575406 0.43394832707388964 0.8076283061651861 1.4475552056282441 2.4986695776505035 4.153675958874814 6.649767892625063 10.25251587990947 15.223149227758764 21.768507247202688 29.978015718271322 39.75824515253144 50.78104358481741 62.46347280002744 73.99471823098357 84.41612360093063 92.74706607206595 98.13525268208035 100.0 98.13525268208035 92.74706607206595 84.41612360093063 73.99471823098357 62.46347280002744 50.78104358481741 50.66169923655897 55.989836656540206 59.452054797019436 60.653065971263345 59.452054797019436 55.989836656540206 50.66169923655897 44.04316545059993 41.80764144535943 46.21633168147655 50.778228906883406 55.45004473487499 60.18226473583515 64.91983790546067 69.6031029110589 74.16893605577239 78.55209486412492 82.68672060632557 86.50795357599021 89.95360712648571 92.96584089910907 95.49277077849709 97.48995318046792 98.9216844381136 99.7620622406117 99.9957650446794 99.61851669243889 98.63721655070744 97.06972963810472 94.94434565965206 92.29892983541119 89.17980113420225 85.64038433185738 81.73969065784237 77.5406872859531 73.10861835678017 68.5093395734396 63.807724852810146 59.066197372156736 54.34342909103322 49.69324301427669
0.004539992976248496 0.008971940057375536 0.02034683690106439 0.044438310013910416 0.09346914177442764 0.18933419862865114 0.36935158466531587 0.6939065031020968 1.2554864752606913 2.1876266720843236 3.671000730971258 5.932610311754045 9.233306744016394 13.839448860308634 19.977006770154087 27.771039008470133 37.17953298454082 47.936444869537084 59.522039550328174 71.17703227626097 81.96945325465985 90.91055111693301 97.10165517924372 99.88242211819781 98.9467622749339 94.39830591403836 86.73150912512563 76.7431631971574 65.39620986407802 53.68361866862963 60.67405682274835 67.03200460356393 71.17703227626097 72.6149037073691 71.17703227626097 67.03200460356393 60.653065971263345 52.729242404304856 44.04316545059993 36.15085592534065 40.29527599216707 44.64079900150763 49.15322954254662 53.791596061219806 58.50851525213696 63.25079641528599 67.9602852839882 72.57493615055648 77.03009006921545 81.25992609879368 85.19904259086431 88.78411705546839 91.95558671864005 94.6592880027485 96.84799215979419 98.48277635493912 99.53417463656908 99.98306125477806 99.82122933431619 99.05164044001329 97.68833443148294 95.75600344073503 93.28924803396079 90.33154686389994 86.93398267374813 83.15377678075987 79.05269069965486 74.69535708972424 70.14760264007374 65.47482294660779 60.74046415678428
0.009290907108625028 0.015197111786725788 0.024527052107105065 0.0390580902859399 0.07788850695763404 0.1592654845253946 0.31363176745153 0.5947966501144434 1.086343255539185 1.9108021489459188 3.2367895233454353 5.280357033430052 8.295875149084422 12.551950456227878 18.289857231991483 25.66607769535559 34.686364525689235 45.14484364424665 56.58581985832605 68.30573394529415 79.40663672315907 88.90097654027757 95.8531415659015 99.53051729629482 99.53051729629482 95.8531415659015 88.90097654027757 79.40663672315907 68.30573394529415 63.54388309760566 70.47514901149951 77.10515858035663 81.87307530779819 83.5270211411272 81.87307530779819 77.10515858035663 69.76763260710311 60.653065971263345 50.66169923655897 40.65696597405991 31.348618088260526 34.741451885665754 38.80802446939342 43.086119421980115 47.543976255387925 52.14298555355582 56.83797042192411 61.57770567938508 66.30567787945137 70.96107882735559 75.48001427712305 79.79689852341781 83.8459952700901 87.563056091403 90.88700059811188 93.7615775955591 96.13694447269967 97.97110303519057 99.23113406192007 99.89417990405981 99.94813415376501 99.39200930961981 98.2359668384009 96.50100835455547 94.21834103038856 91.42844402712379 88.17987496300196 84.52786556856657 80.53276321720307 76.25837962399815 71.77030952608348
0.0185143265803582 0.02971747193715106 0.047064901921142266 0.07354680488935254 0.11339967718029653 0.17252068813057073 0.2656918635696599 0.5086443220440895 0.937778424854573 1.6650848254335544 2.847230184359254 4.688769521998851 7.43610103151491 11.357474442128519 16.705841042305796 23.6649184042062 32.28432927368015 42.41589301077545 53.66801739291049 65.39620986407802 76.7431631971574 86.73150912512563 94.39830591403836 98.9467622749339 99.88242211819781 97.10165517924372 90.91055111693301 81.96945325465985 71.17703227626097 73.24071636838715 79.7105556968776 85.59737485141983 90.48374180359595 92.31163463866358 90.48374180359595 85.21437889662113 77.10515858035663 67.03200460356393 55.989836656540206 44.932896411722155 34.64558103300575 27.253179303401264 29.61944794155411 33.36155443652852 37.34718474573591 41.553894831711155 45.952365937259394 50.50638572893062 55.17304836811151 59.90318893248167 64.64205872211444 69.33023788637924 73.90477096141014 78.30049986442789 82.45155826123357 86.29298163937527 89.76237949452226 92.80161032064733 95.358397029825 97.38782031752497 98.8536304679626 99.7293241097417 99.99894124435552 99.6575490605626 98.71139204329799 97.17770199501791 95.08417604477414 92.46814473728715 89.37546511153646 85.85918461609056 81.97803021015979
0.03592564610120813 0.05658606962473848 0.08794189655818785 0.134853890663457 0.20403867271605414 0.3046090865781839 0.4486984553639567 0.6521502276804703 0.935237864525311 1.4475552056282441 2.4986695776505035 4.153675958874814 6.649767892625063 10.25251587990947 15.223149227758764 21.768507247202688 29.978015718271322 39.75824515253144 50.78104358481741 62.46347280002744 73.99471823098357 84.41612360093063 92.74706607206595 98.13525268208035 100.0 98.13525268208035 92.74706607206595 84.41612360093063 75.94433485572542 82.20122346781862 87.7894919912514 92.50988602077378 96.18671911990134 98.01986733067552 96.07894391523232 90.48374180359595 81.87307530779819 71.17703227626097 59.452054797019436 47.71139155210344 40.65696597405991 35.34546819587803 29.523016692401427 24.971298226882812 28.359997371007832 32.012052851702066 35.9139470770218 40.045620331264345 44.38019303029244 48.88387470360842 53.5160846225074 58.229802276122555 62.97215752542691 67.68526054675334 72.30726103522372 76.77361509716391 81.01852741270834 84.9765262248393 88.58412013376426 91.78147912233747 94.51407819485408 96.73424083428225 98.40252136772372 99.48887029149714 99.97353447150556 99.8476545437805 99.11353427234704 97.78457042239162 95.88484613119881 93.44840502105436 90.48374180359595
0.06788098253150013 0.10491898078585113 0.1600078766084437 0.24077423760610964 0.3574868132182122 0.523710633582584 0.7570143520518301 1.0796877900882587 1.5194052492754058 2.1097471577627194 2.890470584675215 3.907401629222113 5.932610311754045 9.233306744016394 13.839448860308634 19.977006770154087 27.771039008470133 37.17953298454082 47.936444869537084 59.522039550328174 71.17703227626097 81.96945325465985 90.91055111693301 97.10165517924372 99.88242211819781 98.9467622749339 94.39830591403836 86.73150912512563 84.57985667938269 89.83609065743018 94.14908424934582 97.35599756963386 99.33234260877329 100.0 98.01986733067552 92.31163463866358 83.5270211411272 72.6149037073691 60.653065971263345 55.989836656540206 50.66169923655897 44.04316545059993 36.78794411714422 29.523016692401427 22.763768838381278 23.839726067745755 27.133408081712073 30.693732684766374 34.50939459743771 38.56268355477623 42.829147579194526 47.27743292211648 51.86932753172731 56.56002882049137 61.29864868945415 66.02895948045449 70.6903741567639 75.21914304778369 79.54973850643715 83.61638844001035 87.35471051768722 90.7033915294161 93.60585139345292 96.01182908991493 97.87882859037893 99.17336673933822 99.87197191480139 99.9618918580215 99.44148084929492 98.32024980596258 96.07894391523232
0.1248931206738549 0.18942856166732602 0.2834874005010423 0.4186040415850666 0.609894094525167 0.876772248039636 1.243656709371405 1.7405864368259452 2.4036544222413387 3.275139610722233 4.40320557634389 5.841030344957984 7.645243431506666 9.87357728014108 12.58169337033227 18.289857231991483 25.66607769535559 34.686364525689235 45.14484364424665 56.58581985832605 68.30573394529415 79.40663672315907 88.90097654027757 95.8531415659015 99.53051729629482 99.53051729629482 95.8531415659015 88.90097654027757 91.72450403595333 95.60272538445524 98.31879100859943 99.76636332174185 99.88795209395315 98.67870298471966 96.07894391523232 90.48374180359595 81.87307530779819 72.6149037073691 71.17703227626097 67.03200460356393 60.653065971263345 52.729242404304856 44.04316545059993 35.34546819587803 27.253179303401264 20.189651799465537 19.816707606328468 22.742087913035945 25.94008774039962 29.40727761840237 33.13450419230449 37.10636441807216 41.30081374031758 45.688940356214246 50.2349341264658 54.896273261814656 59.62414468493016 64.36410516227393 69.05698026180255 73.63998737548745 78.04805799725504 82.21532377517072 86.07672119397216 89.56966170548232 92.63570826411183 95.22219599394359 97.28373442469622 98.78353153043685 99.69448564677177 100.0 98.01986733067552
0.22375656174583083 0.3330302822214217 0.4890722553722866 0.7086694039370016 1.0132011991440937 1.4293186577981387 1.9894992795453044 2.7323722447292575 3.7026895439153087 4.950808065561461 6.531549695018731 8.502325685758578 10.920451482526147 13.839640411099435 17.305747955767785 21.35193791327782 25.993548865586824 32.28432927368015 42.41589301077545 53.66801739291049 65.39620986407802 76.7431631971574 86.73150912512563 94.39830591403836 98.9467622749339 99.88242211819781 97.10165517924372 93.44285909320442 96.86138274996875 99.0687233544669 99.97785712317719 99.55256109727253 97.80980789801986 94.81864183317283 90.6956400844142 85.21437889662113 81.87307530779819 83.5270211411272 81.87307530779819 77.10515858035663 69.76763260710311 60.653065971263345 50.66169923655897 40.65696597405991 31.348618088260526 23.22362747297589 16.529888822158657 16.289093200985732 18.849137719394854 21.678455688273736 24.780351857349412 28.15327161827048 31.790147733850205 35.677835278735 39.7966687385716 44.1201741712882 48.614966458809135 53.24085690763194 57.95118984340042 62.693418562859435 67.40992135662306 72.03904771567997 76.51637380089146 80.77613537822592 84.75279633156822 88.38270218580608 91.60576138610786 94.36709287699901 96.61857717187601 98.01986733067552 96.07894391523232
0.3903551449613577 0.5701233840277345 0.8215975893235219 1.1682366153257473 1.639018392742454 2.2689148416708362 3.0990880855093073 4.1766780544034114 5.554045534586606 7.287343265363633 9.434315026609195 12.051271656014933 15.189264130702968 18.889564606412844 23.1786702435804 28.063151554759795 33.52476343742366 39.51630764910425 45.95876495517099 52.74019078833396 62.46347280002744 73.99471823098357 84.41612360093063 92.74706607206595 98.13525268208035 100.0 98.13525268208035 97.916814137468 99.60079893439915 99.96540390970337 98.99607675284095 96.73142773407731 93.26067784508558 88.71782642082104 83.27306964203538 85.21437889662113 90.48374180359595 92.31163463866358 90.48374180359595 85.21437889662113 77.10515858035663 67.03200460356393 55.989836656540206 44.932896411722155 34.64558103300575 25.66607769535559 18.26835240527347 12.493021219858248 13.240289498815732 15.448553002404381 17.915148297282126 20.648822065023584 23.654426898179608 26.93220136929587 30.477093660252923 34.27816149215801 38.3180822612213 42.57280685530721 47.011388409672215 51.59601315949859 56.2822545706668 61.01956420942676 65.75200360264705 70.41921102087885 74.95758617136683 79.30166478554872 83.38564464488977 87.14501534191734 90.51823662172418 92.31163463866358 90.48374180359595
0.6631181282455528 0.9503877903276917 1.343977974314965 1.8752743356653045 2.5817775755510883 3.5071488150680126 4.700790751767471 6.216830129627103 8.11238283399682 10.445018887507956 13.269402798195607 16.633164432690002 20.572152730497276 25.10533116483754 30.229678246756848 35.91554413294048 42.102969930763884 48.69948503897522 55.57984886178245 62.588091618818495 69.54203790534027 76.24027826320665 82.47130897088267 90.91055111693301 97.10165517924372 99.88242211819781 98.9467622749339 99.91145790678596 99.72908735561312 98.22222069228262 95.45067599677228 91.52286860003584 86.58877480592051 80.83043593723346 85.21437889662113 91.39311852712282 96.07894391523232 98.01986733067552 96.07894391523232 90.48374180359595 81.87307530779819 71.17703227626097 59.452054797019436 47.71139155210344 36.78794411714422 27.253179303401264 19.398004229089185 13.265546508012175 8.990615426998291 10.642244196412404 12.520431397832501 14.640221250220725 17.014463568548447 19.65310418843638 22.562453589279556 25.74445897162856 29.196008877210573 32.90830234614194 36.866316275702616 41.04840480320798 45.42606296591007 49.9638834600101 54.61972999805925 59.34514363618567 64.08598972176438 68.78334313437374 73.37459870741294 77.79478266659817 81.87307530779819 83.5270211411272 81.87307530779819
1.0969043501614464 1.5426937050934202 2.1407798659484354 2.931201480324634 3.9600501573292126 5.278822481400634 6.943121802782866 9.01060322417588 11.538100141264994 14.577937947039581 18.173528072160877 22.3544377247764 27.13123797696776 32.4905322886763 38.390644020351985 44.75847949227994 51.488069301554184 58.44121615947151 65.45054069163614 72.32502423798424 78.85791545722607 84.83661916937253 90.05395046230947 94.31994539896543 97.47329962366636 99.53051729629482 99.9986159265334 99.27049397654199 97.23614498487689 93.97593116986329 89.61627714037617 84.32153710206988 78.2837257182685 85.21437889662113 91.39311852712282 96.07894391523232 99.0049833749168 100.0 98.01986733067552 92.31163463866358 83.5270211411272 72.6149037073691 60.653065971263345 48.67522559599717 37.531109885139955 27.803730045319412 19.789869908361467 13.53352832366127 8.892161745938635 7.087035029811421 8.458709791047012 10.034273744428726 11.830689019604483 13.863612362568507 16.146747308140633 18.691147509996142 21.50449039346107 24.5903448731541 27.94746096044468 31.569112355278843 35.442525256838785 39.54842734743686 43.86074996420715 48.346513708393765 52.965923083352564 57.672689243909524 62.41459174901344 67.13428062966891 71.17703227626097 72.6149037073691 71.17703227626097
1.766824781448945 2.4384027062805274 3.3204637006412505 4.461422957184164 5.91465495461346 7.736896481549471 9.985860935030319 12.717027103097738 15.979641642445808 19.81206891672723 24.23672749912706 29.254958442759488 34.84226236208758 40.944404908257454 47.47490842832644 54.31440966786695 61.31226316521936 68.29060909076368 75.05091319151633 81.38274442395969 87.0743090833188 91.92403905269569 95.75236635995255 98.4127320055285 99.80089052794574 99.86168743561964 99.88242211819781 97.10165517924372 92.31674545887257 87.55287095306024 81.92975448539538 77.8800783071405 85.21437889662113 91.39311852712282 96.07894391523232 99.0049833749168 100.0 99.0049833749168 96.07894391523232 90.48374180359595 81.87307530779819 71.17703227626097 59.452054797019436 47.71139155210344 36.78794411714422 27.253179303401264 19.398004229089185 13.265546508012175 8.716085146198127 5.502322005640725 5.524270090090455 6.648293689061478 7.952208580543674 9.45382597134181 11.17042554561341 13.11819574741729 15.311606874619738 17.762729703380547 20.480517132577496 23.470071015188985 26.731920636855378 30.26134289521476 34.04775680723327 38.07422622335931 42.31710429649197 46.745851146322494 51.32305217044966 55.989836656540206 59.452054797019436 60.653065971263345 59.452054797019436
2.771182133661437 3.7529953045502924 5.015016050835852 6.612230571609114 8.602110294422168 11.041889069128572 13.985020534620023 17.47689160386493 21.549968142388522 26.21865614708203 31.47426368427816 37.28053065598237 43.57023955321867 50.243416757147706 57.16757088165665 64.18028893024814 71.09432782710856 77.7051123360565 83.80030289449205 89.1708568285067 93.62280455498279 96.9888275065162 99.13867890530092 99.98754402841573 99.5015922148394 98.13525268208035 100.0 98.13525268208035 92.74706607206595 84.41612360093063 77.8800783071405 85.21437889662113 91.39311852712282 96.07894391523232 99.0049833749168 100.0 99.0049833749168 96.07894391523232 91.39311852712282 85.21437889662113 77.10515858035663 67.03200460356393 55.989836656540206 44.932896411722155 34.64558103300575 25.66607769535559 18.26835240527347 12.493021219858248 8.208499862389877 5.1818917172725865 3.4876398321124045 4.2581444910369655 5.167154335026559 6.231961286651565 7.470339412033019 8.900167822758462 10.538973961642045 12.403399763310826 14.508597252414404 16.867564641967174 19.490438734157202 22.38376416790603 25.54976452152137 28.985644155895773 32.682952653166645 36.62704545636956 40.796674569381956 44.932896411722155 47.71139155210344 48.67522559599717 47.71139155210344
4.232368991189312 5.6246755451961805 7.375522342211995 9.542659900006269 12.182248785233929 15.344998083087694 19.071619268962003 23.38781519749256 28.299130665451088 33.78608660109973 39.80008897838897 46.26063082653518 53.054278636349906 60.03584570717402 67.03200460356393 73.84738773816584 80.27298687202027 86.09641421709168 91.11335968102709 95.13940113027085 98.02122401642877 99.64630173168409 99.95018542196357 98.9207450941841 96.59897301657112 97.10165517924372 99.88242211819781 98.9467622749339 94.39830591403836 86.73150912512563 85.21437889662113 91.39311852712282 96.07894391523232 99.0049833749168 100.0 99.0049833749168 96.07894391523232 91.39311852712282 85.21437889662113 77.8800783071405 69.76763260710311 60.653065971263345 50.66169923655897 40.65696597405991 31.348618088260526 23.22362747297589 16.529888822158657 11.304153064044986 7.4273578214333895 4.688769521998851 2.843882471418451 2.636431784666908 3.245645258934972 3.971255568501809 4.829441357825821 5.837249158199669 7.012321826473642 8.372549465311522 9.935640718029546 11.718615620779085 13.73722508084692 16.005306417240433 18.534089079521543 21.331469432088724 24.401278087368038 27.742567392076477 31.34894999703809 34.64558103300575 36.78794411714422 37.531109885139955 36.78794411714422
6.294320347553447 8.208499862389884 10.562339036953063 13.410277586750688 16.79951667724792 20.76524991967837 25.32555043141568 30.476281724192976 36.18648682169052 42.39476371265176 49.00714156616581 55.89692033990986 62.906821959672655 69.85362769773154 76.53525626435385 82.73999147175236 88.2573246449125 92.88966588656015 96.46402934831228 98.84273459067292 99.93220292340662 99.68906571989307 98.1230289828921 95.2962304384618 91.31914851301977 95.8531415659015 99.53051729629482 99.53051729629482 95.8531415659015 88.90097654027757 91.39311852712282 96.07894391523232 99.0049833749168 100.0 99.0049833749168 96.07894391523232 91.39311852712282 85.21437889662113 77.8800783071405 69.76763260710311 61.26263941844161 52.729242404304856 44.04316545059993 35.34546819587803 27.253179303401264 20.189651799465537 14.370394977770298 9.827358560436156 6.457034689316848 4.07622039783662 2.4723526470339383 1.5779695924026917 1.9707730497743967 2.4463403205908807 3.018140174318788 3.700873265845591 4.51036090598255 5.463370450894843 6.5773700841095355 7.8702074866090435 9.359709282601889 11.063201210267056 12.99695265268362 15.175553378163883 17.611234931391916 20.313153884002883 23.22362747297589 25.66607769535559 27.253179303401264 27.803730045319412 27.253179303401264
9.11509136495395 11.664791487718078 14.729034841664918 18.350713487261576 22.55864319766767 27.362410337040792 32.74741950468668 38.67062317094827 45.05745044548388 51.80043566185102 58.759970157088105 65.76746106233985 72.63098629720004 79.14330142789 85.0918056085223 90.26983974120313 94.48850099144937 97.58804157584348 99.44789650638452 99.99446382107212 99.20593763082167 97.1137516405525 93.80049995307294 89.39452684609591 86.73150912512563 94.39830591403836 98.9467622749339 99.88242211819781 97.10165517924372 91.39311852712282 96.07894391523232 99.0049833749168 100.0 99.0049833749168 96.07894391523232 91.39311852712282 85.21437889662113 77.8800783071405 69.76763260710311 61.26263941844161 52.72924240430486 44.48580662229411 36.78794411714422 29.523016692401427 22.763768838381278 16.863814726859555 12.003162851145674 8.208499862389877 5.393368730035602 3.404745473459935 2.065082518171257 1.2034232284723767 1.1567995878789996 1.4567729095989763 1.8233408507928455 2.268225046748933 2.8044435043177676 3.4462717767059505 4.209152156699024 5.109542329964782 6.164695808530969 7.392367956873171 8.810443576568778 10.436484843569255 12.287201866016566 14.377852172469957 16.529888822158657 18.26835240527347 19.398004229089185 19.789869908361467 19.398004229089185
12.85346072962699 16.14124501664994 20.00024613946998 24.452034878767666 29.496876395442012 35.108995623985926 41.23273458823208 47.780118994193664 54.63031077465086 61.63132019122898 68.604187626826 75.34963222109461 81.65692159694358 87.31447064197725 92.12145802228369 95.89958686253644 98.50403596752656 99.83266611108706 99.83266611108708 98.50403596752658 95.89958686253644 92.12145802228369 87.31447064197725 81.65692159694365 84.41612360093063 92.74706607206595 98.13525268208035 100.0 98.13525268208035 96.07894391523232 99.0049833749168 100.0 99.0049833749168 96.07894391523232 91.39311852712282 85.21437889662113 77.8800783071405 69.76763260710311 61.26263941844161 52.72924240430486 44.48580662229411 36.78794411714424 29.819727942988738 23.692775868212184 18.26835240527347 13.53352832366127 9.6327638230493 6.587475442640296 4.32827979019659 2.7323722447292553 1.6572675401761259 0.9657697627537771 0.656395480887414 0.8385959999058343 1.064834870551705 1.3438599680470917 1.6856524784662323 2.1014755620909984 2.6038917081658175 3.206740135058771 3.925065335170752 4.774988029837324 5.773510477458536 6.938249346890537 8.28709128483443 9.827358560436156 11.304153064044986 12.493021219858248 13.265546508012175 13.53352832366127 13.265546508012175
17.649239194761172 21.74923295522457 26.444980833775684 31.726628535449098 37.55657214312164 43.86613036064424 50.55382944060792 57.4857429288291 64.4981998439271 71.40298935320814 77.99496196654037 84.06167947240537 89.39452684609587 93.80049995307294 97.1137516405525 99.20593763082167 99.99446382107212 99.44789650638454 97.5880415758435 94.4885009914494 90.26983974120313 85.0918056085223 79.14330142789 72.63098629720011 81.96945325465985 90.91055111693301 97.10165517924372 99.88242211819781 98.9467622749339 99.0049833749168 100.0 99.0049833749168 96.07894391523232 91.39311852712282 85.21437889662113 77.8800783071405 69.76763260710311 61.26263941844161 52.72924240430486 44.48580662229411 36.78794411714424 29.819727942988738 23.692775868212184 18.45195239929893 14.0858420921045 10.435048475476501 7.4273578214333895 5.079283386489853 3.337326996032607 2.1067999523041445 1.2778387649535765 0.744658307092434 0.41693296979041133 0.46665901815114497 0.6011496711308294 0.7696758125743276 0.9794343652815158 1.2387541179468626 1.5571740530953377 1.9455010967913058 2.415839486847902 2.9815832857954283 3.657363184741907 4.458938750868355 5.40302775872696 6.457034689316848 7.4273578214333895 8.208499862389877 8.716085146198127 8.892161745938635 8.716085146198127
23.598194054475854 28.53630414820303 34.04850422818997 40.084798617977526 46.56319044581776 53.36875964032431 60.3549430366678 67.347260571175 74.14952634716896 80.5523440863545 86.34343861237716 91.31914851301973 95.29623043846178 98.1230289828921 99.68906571989307 99.93220292340662 98.84273459067293 96.46402934831232 92.8896658865602 88.25732464491254 82.73999147175236 76.53525626435385 69.85362769773162 69.76763260710311 79.40663672315907 88.90097654027757 95.8531415659015 99.53051729629482 99.53051729629482 100.0 99.0049833749168 96.07894391523232 91.39311852712282 85.21437889662113 77.8800783071405 69.76763260710311 61.26263941844161 52.72924240430486 44.48580662229411 36.78794411714424 29.819727942988738 23.692775868212184 18.45195239929893 14.0858420921045 10.53992245618644 7.730474044329972 5.502322005640725 3.7628256807176226 2.4723526470339383 1.5607557919982848 0.9466462401710334 0.5516564420760778 0.308871540823677 0.2510339652033842 0.328071806189078 0.42613539394341265 0.5501341172851796 0.7058815408608675 0.9001965518290713 1.1409986726229224 1.4373919470966439 1.79973080276624 2.2396603742871446 2.7701230228091442 3.404745473459935 4.07622039783662 4.688769521998851 5.1818917172725865 5.502322005640725 5.613476283413374 5.502322005640725
30.724046404876653 36.458464225767486 42.687398091011694 49.31537654744025 56.2142445196822 63.22542522824821 70.16467129664888 76.82924876162633 83.00725150041977 88.4885007137261 93.07627524582335 96.5989730165711 98.92074509418408 99.95018542196357 99.64630173168409 98.02122401642877 95.13940113027088 91.11335968102713 86.09641421709173 80.27298687202033 73.84738773816584 67.03200460356393 69.76763260710311 77.8800783071405 85.21437889662113 91.39311852712282 96.07894391523232 99.0049833749168 100.0 99.0049833749168 96.07894391523232 91.39311852712282 85.21437889662113 77.8800783071405 69.76763260710311 61.26263941844161 52.72924240430486 44.48580662229411 36.78794411714424 29.819727942988738 23.692775868212184 18.45195239929893 14.0858420921045 10.53992245618644 7.730474044329978 5.557621261148312 3.9163895098987074 2.6782676492638178 1.7597472415623396 1.110899653824231 0.6737946999085469 0.3926526838305625 0.2198455963042534 0.13054229866175404 0.17307771462791804 0.22807270970304172 0.2987086278557759 0.3888342260356029 0.5030642762722555 0.6468815208025938 0.8267387348581139 1.0501566841488914 1.325812746637113 1.6636139496964761 2.065082518171257 2.4723526470339383 2.843882471418451 3.1429762018367717 3.337326996032607 3.404745473459935 3.337326996032607
38.951565922695046 45.35716284087353 52.11325447612829 59.07882730142059 66.08408666174701 72.93622366726518 79.42752149124681 85.3453971070889 90.48374180359595 94.65473756661757 97.70021405636165 99.50159221483939 99.98754402841573 99.13867890530092 96.9888275065162 93.62280455498279 89.17085682850674 83.8003028944921 77.70511233605657 71.09432782710863 64.18028893024807 69.76763260710311 77.8800783071405 85.21437889662113 91.39311852712282 96.07894391523232 99.0049833749168 100.0 100.0 98.13525268208035 92.74706607206595 85.21437889662113 77.8800783071405 69.76763260710311 61.26263941844161 52.72924240430486 44.48580662229411 36.78794411714424 29.819727942988738 23.692775868212184 18.45195239929893 14.0858420921045 10.53992245618644 7.730474044329978 5.557621261148312 3.9163895098987074 2.7051846866350444 1.831563888873417 1.2034232284723767 0.7597014027577577 0.4607821929992749 0.26852001769538214 0.1503439192977573 0.08087667511241124 0.08826719813584219 0.11800080880644986 0.15678802924387303 0.20705374619805436 0.27176627264590475 0.3545278014318663 0.45967121747953765 0.5923611925441605 0.7586966397740997 0.9658106644038978 1.2034232284723767 1.4407591843112353 1.6572675401761259 1.831563888873417 1.9448214745385404 1.9841094744370291 1.9448214745385404
48.08596060497668 54.946528179497115 61.95032261604149 68.9172982890091 75.64744614173095 81.92975448539532 87.5528709530602 92.31674545887257 96.04437501392954 98.59269539087744 99.86168743561964 99.80089052794575 98.41273200552853 95.75236635995255 91.92403905269569 87.0743090833188 81.38274442395976 75.0509131915164 68.29060909076384 61.31226316521943 69.76763260710311 77.8800783071405 85.21437889662113 91.39311852712282 96.07894391523232 99.0049833749168 100.0 99.0049833749168 99.88242211819781 98.9467622749339 94.39830591403836 86.73150912512563 76.7431631971574 65.39620986407802 53.66801739291049 44.48580662229411 36.78794411714424 29.819727942988738 23.692775868212184 18.45195239929893 14.0858420921045 10.53992245618644 7.730474044329978 5.557621261148312 3.9163895098987074 2.7051846866350444 1.8315638888734194 1.2155178329914949 0.7907054051593443 0.4991593906910219 0.30275547453758134 0.17643022368343347 0.09878299405312299 0.053139762179825314 0.043515449762643606 0.05901774238962206 0.07955435926328541 0.10658292785453492 0.14192326192605434 0.18782863245574635 0.24706560106219835 0.3230018748693129 0.41970107126003686 0.5407329126440966 0.6737946999085469 0.8066787139099616 0.9279013887064737 1.0254896296404015 1.0889023668554452 1.110899653824231 1.0889023668554452
57.80408566029711 64.81589126250927 71.71100584998774 78.28372571826844 84.32153710206983 89.61627714037611 93.97593116986326 97.23614498487689 99.27049397654196 99.9986159265334 99.3914784153602 97.47329962366639 94.31994539896547 90.05395046230947 84.83661916937253 78.85791545722607 72.3250242379843 65.4505406916362 61.26263941844161 69.76763260710311 77.8800783071405 85.21437889662113 91.39311852712282 96.07894391523232 99.0049833749168 100.0 99.0049833749168 96.07894391523232 99.53051729629482 99.53051729629482 95.8531415659015 88.90097654027757 79.40663672315907 68.30573394529415 56.58581985832605 45.14484364424665 34.686364525689235 25.66607769535559 18.45195239929893 14.0858420921045 10.53992245618644 7.730474044329978 5.557621261148312 3.9163895098987074 2.7051846866350444 1.8315638888734194 1.2155178329914949 0.7907054051593443 0.5041760259690979 0.3151111598444445 0.19112457966326402 0.11137751478448037 0.06236008859994447 0.033546262790251205 0.02073831939507995 0.02853422932664626 0.03902123494667596 0.05303690181226568 0.07164692525704584 0.09619649361143594 0.1283698994891724 0.17025874752080986 0.22443880178246084 0.29088426258125877 0.3624641108965754 0.43394832707388964 0.4991593906910219 0.5516564420760778 0.5857689713335614 0.5976022895005945 0.5857689713335614
67.66212618257336 74.45084017221349 80.83043593723346 86.58877480592047 91.52286860003579 95.45067599677223 98.22222069228259 99.72908735561312 99.91145790678596 98.76205167204581 96.32660767184194 92.700864512461 88.02431583022742 82.47130897088267 76.24027826320665 69.54203790534035 62.588091618818495 61.26263941844161 69.76763260710311 77.8800783071405 85.21437889662113 91.39311852712282 96.07894391523232 99.0049833749168 100.0 99.0049833749168 96.07894391523232 94.39830591403836 98.9467622749339 99.88242211819781 97.10165517924372 90.91055111693301 81.96945325465985 71.17703227626097 59.452054797019436 47.71139155210344 36.78794411714422 27.253179303401264 19.398004229089185 13.265546508012175 8.716085146198127 5.557621261148312 3.9163895098987074 2.7051846866350444 1.8315638888734194 1.2155178329914949 0.7907054051593443 0.5041760259690979 0.3151111598444445 0.1930454136227715 0.11592291739045918 0.06755387751938452 0.03782330567826259 0.02034683690106439 0.010516289805000117 0.013336308980672448 0.018502226112112514 0.02551259256475733 0.03496451246109008 0.047625838448092914 0.06447629388322451 0.08675605030773718 0.11592291739045918 0.1503439192977573 0.18734005942224272 0.2242867719485806 0.25799119720271807 0.28512436826796334 0.30275547453758134 0.308871540823677 0.30275547453758134
77.12223566200224 83.27306964203532 88.71782642082104 93.26067784508555 96.73142773407729 98.99607675284093 99.96540390970337 99.60079893439915 97.91681413746801 94.9802006704711 90.9055181461589 85.84772010626625 79.99238412164907 73.54444439905465 66.71637751954346 59.71678236660423 61.26263941844161 69.76763260710311 77.8800783071405 85.21437889662113 91.39311852712282 96.07894391523232 99.0049833749168 100.0 99.0049833749168 96.07894391523232 91.39311852712282 92.74706607206595 98.13525268208035 100.0 98.01986733067552 92.31163463866358 83.5270211411272 72.6149037073691 60.653065971263345 48.67522559599717 37.531109885139955 27.803730045319412 19.789869908361467 13.53352832366127 8.892161745938635 5.613476283413374 3.404745473459935 1.9841094744370291 1.2155178329914949 0.7907054051593443 0.5041760259690979 0.3151111598444445 0.1930454136227715 0.11592291739045918 0.06823280527563774 0.03936690406550784 0.022041465283014688 0.011857083645433888 0.006128349505322217 0.006025472337643741 0.008480723518289109 0.01186361342953527 0.016494659055516815 0.02279355017688867 0.03130566097460128 0.04273424703306795 0.05756561714872758 0.07465858083766795 0.09303032032049485 0.11137751478448037 0.1281146370384212 0.14158857103468014 0.1503439192977573 0.15338106793244638 0.1503439192977573
85.21437889662113 90.69564008441414 94.81864183317283 97.80980789801983 99.55256109727252 99.9778571231772 99.0687233544669 96.86138274996875 93.44285909320446 88.94528425831413 83.5374265392392 77.41419687922487 70.7850411113843 63.862177160345865 56.849586140146855 61.26263941844161 69.76763260710311 77.8800783071405 85.21437889662113 91.39311852712282 96.07894391523232 99.0049833749168 100.0 99.0049833749168 96.07894391523232 91.39311852712282 85.21437889662113 90.48374180359595 96.07894391523232 98.01986733067552 96.07894391523232 90.48374180359595 81.87307530779819 71.17703227626097 59.452054797019436 47.71139155210344 36.78794411714422 27.253179303401264 19.398004229089185 13.265546508012175 8.716085146198127 5.502322005640725 3.337326996032607 1.9448214745385404 1.0889023668554452 0.5857689713335614 0.3151111598444445 0.1930454136227715 0.11592291739045918 0.06823280527563774 0.03936690406550784 0.022262985691888948 0.01234098040866794 0.006638761765307788 0.003431252877771799 0.002631676435619742 0.0037577490387478165 0.005332923171761683 0.007522204844480763 0.010545502012081199 0.014693715810143584 0.02034683690106439 0.027465356997214266 0.035620647830703414 0.04438606039028746 0.053139762179825314 0.06112527611295737 0.06755387751938452 0.0717311760109315 0.0731802418880473 0.0717311760109315
90.48374180359595 96.07894391523232 98.67870298471966 99.88795209395313 99.76636332174186 98.31879100859946 95.60272538445528 91.72450403595333 86.83240439913105 81.10724263377612 74.75130914631272 67.97658214023046 60.99316943876658 53.99884046867109 61.26263941844161 69.76763260710311 77.8800783071405 85.21437889662113 91.39311852712282 96.07894391523232 99.0049833749168 100.0 99.0049833749168 96.07894391523232 91.39311852712282 85.21437889662113 77.8800783071405 85.21437889662113 90.48374180359595 92.31163463866358 90.48374180359595 85.21437889662113 77.10515858035663 67.03200460356393 55.989836656540206 44.932896411722155 34.64558103300575 25.66607769535559 18.26835240527347 12.493021219858248 8.208499862389877 5.1818917172725865 3.1429762018367717 1.831563888873417 1.0254896296404015 0.5516564420760778 0.28512436826796334 0.14158857103468014 0.06823280527563774 0.03936690406550784 0.022262985691888948 0.012340980408667983 0.006705482430281116 0.0035712849641635165 0.0018458233995780567 0.0011111171044518604 0.0016095652472320355 0.0023173925895685 0.0033161404442984994 0.004716376763420461 0.0066669368393523455 0.009327112346494885 0.01259028475016699 0.016328719092180814 0.02034683690106439 0.024359586422561932 0.028020194012871213 0.030967103541862634 0.03288200228140395 0.033546262790251205 0.03288200228140395
92.31163463866358 98.01986733067552 100.0 99.3323426087733 97.35599756963389 94.14908424934586 89.83609065743022 84.57985667938269 78.57138355465668 72.01835744557458 65.1333444733279 58.12258234820423 51.17616990811423 60.653065971263345 69.76763260710311 77.8800783071405 85.21437889662113 91.39311852712282 96.07894391523232 99.0049833749168 100.0 99.0049833749168 96.07894391523232 91.39311852712282 85.21437889662113 77.8800783071405 69.76763260710311 77.10515858035663 81.87307530779819 83.5270211411272 81.87307530779819 77.10515858035663 69.76763260710311 60.653065971263345 50.66169923655897 40.65696597405991 31.348618088260526 23.22362747297589 16.529888822158657 11.304153064044986 7.4273578214333895 4.688769521998851 2.843882471418451 1.6572675401761259 0.9279013887064737 0.4991593906910219 0.25799119720271807 0.1281146370384212 0.06112527611295737 0.028020194012871213 0.012340980408667983 0.006705482430281116 0.0035712849641635295 0.001864374233151683 9.540162873079269E-4 4.7375046785475824E-4 6.664619310539895E-4 9.734638921455007E-4 0.0014132097383018937 0.002039086595881396 0.002924199457506758 0.004107955522530075 0.005545159943217707 0.007191684765732906 0.008961391040299537 0.010728732951170824 0.01234098040866794 0.013638892648201145 0.01448227466826878 0.014774836023203373 0.01448227466826878
90.48374180359595 96.07894391523232 98.01986733067552 96.18671911990137 92.50988602077382 87.78949199125144 82.20122346781868 75.94433485572542 69.22992156776473 62.26925245054689 55.263046155967885 48.39242031364343 55.989836656540206 67.03200460356393 77.10515858035663 85.21437889662113 91.39311852712282 96.07894391523232 99.0049833749168 100.0 99.0049833749168 96.07894391523232 91.39311852712282 85.21437889662113 77.8800783071405 69.76763260710311 61.26263941844161 67.03200460356393 71.17703227626097 72.6149037073691 71.17703227626097 67.03200460356393 60.653065971263345 52.729242404304856 44.04316545059993 35.34546819587803 27.253179303401264 20.189651799465537 14.370394977770298 9.827358560436156 6.457034689316848 4.07622039783662 2.4723526470339383 1.4407591843112353 0.8066787139099616 0.43394832707388964 0.2242867719485806 0.11137751478448037 0.053139762179825314 0.024359586422561932 0.010728732951170824 0.004539992976248479 0.001864374233151683 9.540162873079269E-4 4.785117392129021E-4 2.3525752000097726E-4 2.667645120427271E-4 3.952992835689561E-4 5.821920545740452E-4 8.522142565151674E-4 0.0012372924261788228 0.00173833101298252 0.002346501428356972 0.003043248300840364 0.0037921208930767657 0.004539992976248479 0.005222234967574471 0.005771462213521026 0.006128349505322217 0.006252150377482029 0.006128349505322217
85.21437889662113 90.48374180359595 92.31163463866358 90.48374180359595 85.5973748514199 79.71055569687766 73.24071636838723 66.40039849933645 59.39777045154594 52.42651110597922 45.65760496233152 47.71139155210344 59.452054797019436 71.17703227626097 81.87307530779819 90.48374180359595 96.07894391523232 99.0049833749168 100.0 99.0049833749168 96.07894391523232 91.39311852712282 85.21437889662113 77.8800783071405 69.76763260710311 61.26263941844161 52.72924240430486 55.989836656540206 59.452054797019436 60.653065971263345 59.452054797019436 55.989836656540206 50.66169923655897 44.04316545059993 36.78794411714422 29.523016692401427 22.763768838381278 16.863814726859555 12.003162851145674 8.208499862389877 5.393368730035602 3.404745473459935 2.065082518171257 1.2034232284723767 0.6737946999085469 0.3624641108965754 0.18734005942224272 0.09303032032049485 0.04438606039028746 0.02034683690106439 0.008961391040299537 0.0037921208930767657 0.0015417613011934367 6.022548797247295E-4 2.3525752000097726E-4 1.1337271387479691E-4 1.0322067823340858E-4 1.551737136375913E-4 2.318525482104663E-4 3.4430859735403325E-4 5.030455607111461E-4 7.067526484648328E-4 9.540162873079269E-4 0.0012372924261788228 0.0015417613011934367 0.0018458233995780567 0.0021232022938522145 0.002346501428356972 0.0024916009731503217 0.002541934651619926 0.0024916009731503217
77.10515858035663 81.87307530779819 83.5270211411272 81.87307530779819 77.10515858035663 70.47514901149958 63.54388309760566 56.53180521793135 49.62417650269831 42.980862611248995 37.531109885139955 48.67522559599717 60.653065971263345 72.6149037073691 83.5270211411272 92.31163463866358 98.01986733067552 100.0 99.0049833749168 96.07894391523232 91.39311852712282 85.21437889662113 77.8800783071405 69.76763260710311 61.26263941844161 52.72924240430486 44.48580662229411 44.932896411722155 47.71139155210344 48.67522559599717 47.71139155210344 44.932896411722155 40.65696597405991 35.34546819587803 29.523016692401427 23.692775868212184 18.26835240527347 13.53352832366127 9.6327638230493 6.587475442640296 4.32827979019659 2.7323722447292553 1.6572675401761259 0.9657697627537771 0.5407329126440966 0.29088426258125877 0.1503439192977573 0.07465858083766795 0.035620647830703414 0.016328719092180814 0.007191684765732906 0.003043248300840364 0.0012372924261788228 4.8332086214372753E-4 1.8139568386896777E-4 6.541036577238509E-5 3.860924498084805E-5 5.8883853980950135E-5 8.925723297793216E-5 1.3438122776315224E-4 1.965035984673079E-4 2.760772572037196E-4 3.7266531720786734E-4 4.8332086214372753E-4 6.022548797247295E-4 7.210299990312847E-4 8.29381916075739E-4 9.166087736247624E-4 9.732886947188954E-4 9.929504305851088E-4 9.732886947188954E-4
67.03200460356393 71.17703227626097 72.6149037073691 71.17703227626097 67.03200460356393 60.67405682274841 53.68361866862963 46.866431545106046 40.370427389900065 34.31201023489655 36.78794411714422 47.71139155210344 59.452054797019436 71.17703227626097 81.87307530779819 90.48374180359595 96.07894391523232 98.01986733067552 96.07894391523232 91.39311852712282 85.21437889662113 77.8800783071405 69.76763260710311 61.26263941844161 52.72924240430486 44.48580662229411 36.78794411714424 34.64558103300575 36.78794411714422 37.531109885139955 36.78794411714422 34.64558103300575 31.348618088260526 27.253179303401264 22.763768838381278 18.26835240527347 14.0858420921045 10.435048475476501 7.4273578214333895 5.079283386489853 3.337326996032607 2.1067999523041445 1.2778387649535765 0.744658307092434 0.41693296979041133 0.2242867719485806 0.11592291739045918 0.05756561714872758 0.027465356997214266 0.01259028475016699 0.005545159943217707 0.002346501428356972 9.540162873079269E-4 3.7266531720786734E-4 1.3986542970508976E-4 5.043476625678885E-5 1.747341781230281E-5 2.1600323074798112E-5 3.3217038654648964E-5 5.043476625678885E-5 7.374998146901935E-5 1.0361485876900842E-4 1.3986542970508976E-4 1.8139568386896777E-4 2.260329406981056E-4 2.706105612412539E-4 3.112762382898642E-4 3.4401344604594253E-4 3.652860495145929E-4 3.7266531720786734E-4 3.652860495145929E-4
55.989836656540206 59.452054797019436 60.653065971263345 59.452054797019436 55.989836656540206 50.66169923655897 44.16280808180983 37.833610251481964 31.980131606301143 26.672520850559717 34.64558103300575 44.932896411722155 55.989836656540206 67.03200460356393 77.10515858035663 85.21437889662113 90.48374180359595 92.31163463866358 90.48374180359595 85.21437889662113 77.8800783071405 69.76763260710311 61.26263941844161 52.72924240430486 44.48580662229411 36.78794411714424 29.819727942988738 25.66607769535559 27.253179303401264 27.803730045319412 27.253179303401264 25.66607769535559 23.22362747297589 20.189651799465537 16.863814726859555 13.53352832366127 10.435048475476501 7.730474044329972 5.502322005640725 3.7628256807176226 2.4723526470339383 1.5607557919982848 0.9466462401710334 0.5516564420760778 0.308871540823677 0.1661557273173933 0.08587780939743375 0.042645658068565434 0.02034683690106439 0.009327112346494885 0.004107955522530075 0.00173833101298252 7.067526484648328E-4 2.760772572037196E-4 1.0361485876900842E-4 3.736299379885256E-5 1.2944626292938417E-5 7.659672715416772E-6 1.1949396128877693E-5 1.818652152100997E-5 2.659387015558673E-5 3.736299379885256E-5 5.043476625678885E-5 6.541036577238509E-5 8.150633472817838E-5 9.758079914099331E-5 1.122446365234345E-4 1.240495079956712E-4 1.3172030117077435E-4 1.3438122776315224E-4 1.3172030117077435E-4
44.932896411722155 47.71139155210344 48.67522559599717 47.71139155210344 44.932896411722155 40.65696597405991 35.34546819587803 29.739971576426182 24.66857206866723 23.22362747297589 31.348618088260526 40.65696597405991 50.66169923655897 60.653065971263345 69.76763260710311 77.10515858035663 81.87307530779819 83.5270211411272 81.87307530779819 77.10515858035663 69.76763260710311 61.26263941844161 52.72924240430486 44.48580662229411 36.78794411714424 29.819727942988738 23.692775868212184 18.45195239929893 19.398004229089185 19.789869908361467 19.398004229089185 18.26835240527347 16.529888822158657 14.370394977770298 12.003162851145674 9.6327638230493 7.4273578214333895 5.502322005640725 3.9163895098987074 2.6782676492638178 1.7597472415623396 1.110899653824231 0.6737946999085469 0.3926526838305625 0.2198455963042534 0.11826471566155732 0.06112527611295737 0.030353913807886636 0.01448227466826878 0.006638761765307788 0.0029239208281656767 0.0012372924261788228 5.030455607111461E-4 1.965035984673079E-4 7.374998146901935E-5 2.659387015558673E-5 9.213600834566143E-6 3.066941294563569E-6 4.1399377187851705E-6 6.300826050646546E-6 9.213600834566143E-6 1.2944626292938417E-5 1.747341781230281E-5 2.266180127765712E-5 2.8238343245283883E-5 3.3807434839047335E-5 3.8887806501929316E-5 4.2977672813685264E-5 4.563526367903997E-5 4.65571571578309E-5 4.563526367903997E-5
34.64558103300575 36.78794411714422 37.531109885139955 36.78794411714422 34.64558103300575 31.348618088260526 27.253179303401264 22.76408391002661 18.529113473211574 20.189651799465537 27.253179303401264 35.34546819587803 44.04316545059993 52.729242404304856 60.653065971263345 67.03200460356393 71.17703227626097 72.6149037073691 71.17703227626097 67.03200460356393 60.653065971263345 52.729242404304856 44.48580662229411 36.78794411714424 29.819727942988738 23.692775868212184 18.45195239929893 14.0858420921045 13.265546508012175 13.53352832366127 13.265546508012175 12.493021219858248 11.304153064044986 9.827358560436156 8.208499862389877 6.587475442640296 5.079283386489853 3.7628256807176226 2.6782676492638178 1.831563888873417 1.2034232284723767 0.7597014027577577 0.4607821929992749 0.26852001769538214 0.1503439192977573 0.08087667511241124 0.04180121746110127 0.020757870271771763 0.009903868763242701 0.004539992976248479 0.0019995566179747334 8.461365421744255E-4 3.4401344604594253E-4 1.3438122776315224E-4 5.043476625678885E-5 1.818652152100997E-5 6.300826050646546E-6 2.0973627956717965E-6 1.378065554894573E-6 2.0973627956717965E-6 3.066941294563569E-6 4.308891782197059E-6 5.8163955230905655E-6 7.543458349844266E-6 9.39972791789601E-6 1.1253517471925882E-5 1.2944626292938417E-5 1.4306024524312938E-5 1.5190659675689652E-5 1.5497531357028978E-5 1.5190659675689652E-5
25.66607769535559 27.253179303401264 27.803730045319412 27.253179303401264 25.66607769535559 23.22362747297589 20.189651799465537 16.863814726859555 13.552272819730096 16.863814726859555 22.763768838381278 29.523016692401427 36.78794411714422 44.04316545059993 50.66169923655897 55.989836656540206 59.452054797019436 60.653065971263345 59.452054797019436 55.989836656540206 50.66169923655897 44.04316545059993 36.78794411714422 29.819727942988738 23.692775868212184 18.45195239929893 14.0858420921045 10.53992245618644 8.716085146198127 8.892161745938635 8.716085146198127 8.208499862389877 7.4273578214333895 6.457034689316848 5.393368730035602 4.32827979019659 3.337326996032607 2.4723526470339383 1.7597472415623396 1.2034232284723767 0.7907054051593443 0.4991593906910219 0.30275547453758134 0.17643022368343347 0.09878299405312299 0.053139762179825314 0.027465356997214266 0.013638892648201145 0.006507305474754297 0.002982987947026769 0.0013138023168804537 5.55951324165014E-4 2.260329406981056E-4 8.8294758344622E-5 3.313800277713885E-5 1.1949396128877693E-5 4.1399377187851705E-6 1.378065554894573E-6 4.407315777651242E-7 6.707765177056668E-7 9.808661647953488E-7 1.378065554894573E-6 1.8601939266915526E-6 2.4125414705592214E-6 3.0062117880409033E-6 3.5990889498640312E-6 4.1399377187851705E-6 4.5753387694458E-6 4.8582619182234344E-6 4.956405319172502E-6 4.8582619182234344E-6
18.26835240527347 19.398004229089185 19.789869908361467 19.398004229089185 18.26835240527347 16.529888822158657 14.370394977770298 12.003162851145674 9.6327638230493 13.53352832366127 18.26835240527347 23.692775868212184 29.523016692401427 35.34546819587803 40.65696597405991 44.932896411722155 47.71139155210344 48.67522559599717 47.71139155210344 44.932896411722155 40.65696597405991 35.34546819587803 29.523016692401427 23.692775868212184 18.45195239929893 14.0858420921045 10.53992245618644 7.730474044329978 5.557621261148312 5.613476283413374 5.502322005640725 5.1818917172725865 4.688769521998851 4.07622039783662 3.404745473459935 2.7323722447292553 2.1067999523041445 1.5607557919982848 1.110899653824231 0.7597014027577577 0.4991593906910219 0.3151111598444445 0.19112457966326402 0.11137751478448037 0.06236008859994447 0.033546262790251205 0.017338430690350532 0.008610009871634024 0.004107955522530075 0.0018831115057022748 8.29381916075739E-4 3.509629786432931E-4 1.426908988085513E-4 5.5739036926945906E-5 2.0919479197970832E-5 7.543458349844266E-6 2.613474975286327E-6 8.699502472413703E-7 2.7822663710158763E-7 2.06115362243856E-7 3.0139931785484317E-7 4.234502454176725E-7 5.715980433472658E-7 7.413226998963535E-7 9.237449661970604E-7 1.105923512627486E-6 1.272114840115557E-6 1.4059043257481627E-6 1.4928405940256096E-6 1.5229979744712643E-6 1.4928405940256096E-6
12.493021219858248 13.265546508012175 13.53352832366127 13.265546508012175 12.493021219858248 11.304153064044986 9.827358560436156 8.208499862389877 7.4273578214333895 10.435048475476501 14.0858420921045 18.26835240527347 22.763768838381278 27.253179303401264 31.348618088260526 34.64558103300575 36.78794411714422 37.531109885139955 36.78794411714422 34.64558103300575 31.348618088260526 27.253179303401264 22.763768838381278 18.26835240527347 14.0858420921045 10.53992245618644 7.730474044329978 5.557621261148312 3.9163895098987074 3.404745473459935 3.337326996032607 3.1429762018367717 2.843882471418451 2.4723526470339383 2.065082518171257 1.6572675401761259 1.2778387649535765 0.9466462401710334 0.6737946999085469 0.4607821929992749 0.30275547453758134 0.19112457966326402 0.11592291739045918 0.06755387751938452 0.03782330567826259 0.02034683690106439 0.010516289805000117 0.005222234967574471 0.0024916009731503217 0.0011421648638660512 5.030455607111461E-4 2.1286980697122744E-4 8.654640498933893E-5 3.3807434839047335E-5 1.2688305518789939E-5 4.5753387694458E-6 1.5851527009028743E-6 5.276514973764787E-7 1.6875298575085278E-7 6.085147280085755E-8 8.898217092106947E-8 1.250152866386744E-7 1.6875298575085278E-7 2.188608244349616E-7 2.727173805655754E-7 3.2650198323820526E-7 3.7556667659383064E-7 4.1506536876982277E-7 4.407315777651242E-7 4.496349462280874E-7 4.407315777651242E-7
