25.66607769535559 27.253179303401264 27.803730045319412 27.253179303401264 26.038343092302902 24.847824066390423 23.692775868212184 22.573354041921696 21.48962339822053 20.4415620978264 19.42906587854883 19.789869908361467 19.398004229089185 18.26835240527347 16.529888822158657 14.891196300114778 14.0858420921045 13.313388539428194 12.493021219858248 11.304153064044986 9.827358560436156 8.208499862389877 6.587475442640296 5.079283386489853 3.7628256807176226 2.843882471418451 2.4723526470339383 2.065082518171257 1.6572675401761259 1.2778387649535765 0.9466462401710334 0.6737946999085469 0.4607821929992749 0.30275547453758134 0.19112457966326402 0.11592291739045918 0.06755387751938452 0.03782330567826259 0.02034683690106439 0.010516289805000117 0.005222234967574471
34.64558103300575 36.78794411714422 37.531109885139955 36.78794411714422 35.33133283586014 33.90526072544423 32.51072991205959 31.148627584740723 29.819727942988738 28.52469450573053 27.26408275566771 27.803730045319412 27.253179303401264 25.66607769535559 23.22362747297589 21.48962339822053 20.4415620978264 19.42906587854883 18.26835240527347 16.529888822158657 14.370394977770298 12.003162851145674 9.6327638230493 7.4273578214333895 5.502322005640725 4.688769521998851 4.07622039783662 3.404745473459935 2.7323722447292553 2.1067999523041445 1.5607557919982848 1.110899653824231 0.7597014027577577 0.4991593906910219 0.3151111598444445 0.19112457966326402 0.11137751478448037 0.06236008859994447 0.033546262790251205 0.017338430690350532 0.008610009871634024
44.932896411722155 47.71139155210344 48.67522559599717 47.73047992614459 46.098028621083365 44.48580662229411 42.895639867907306 41.329237777034436 39.78819204512047 38.273975944806914 36.78794411714424 37.531109885139955 36.78794411714422 34.64558103300575 31.348618088260526 29.819727942988738 28.52469450573053 27.26408275566771 25.66607769535559 23.22362747297589 20.189651799465537 16.863814726859555 13.53352832366127 10.435048475476501 8.208499862389877 7.4273578214333895 6.457034689316848 5.393368730035602 4.32827979019659 3.337326996032607 2.4723526470339383 1.7597472415623396 1.2034232284723767 0.7907054051593443 0.4991593906910219 0.30275547453758134 0.17643022368343347 0.09878299405312299 0.053139762179825314 0.027465356997214266 0.013638892648201145
55.989836656540206 59.452054797019436 60.653065971263345 59.547254223926984 57.83361528709441 56.12437364432349 54.42209263252074 52.72924240430488 51.04819497422892 49.381219803334616 47.73047992614459 48.67522559599717 47.71139155210344 44.932896411722155 41.32923777703442 39.78819204512047 38.273975944806914 36.78794411714422 34.64558103300575 31.348618088260526 27.253179303401264 22.763768838381278 18.26835240527347 14.0858420921045 12.493021219858248 11.304153064044986 9.827358560436156 8.208499862389877 6.587475442640296 5.079283386489853 3.7628256807176226 2.6782676492638178 1.831563888873417 1.2034232284723767 0.7597014027577577 0.4607821929992749 0.26852001769538214 0.1503439192977573 0.08087667511241124 0.04180121746110127 0.020757870271771763
67.03200460356393 71.17703227626097 72.6149037073691 71.43373137359575 69.76763260710311 68.08590290919247 66.39157633354736 64.687642476213 62.97703814010032 61.26263941844159 59.547254223926984 60.653065971263345 59.452054797019436 55.989836656540206 52.729242404304856 51.04819497422892 49.381219803334616 47.71139155210344 44.932896411722155 40.65696597405991 35.34546819587803 29.523016692401427 23.692775868212184 19.398004229089185 18.26835240527347 16.529888822158657 14.370394977770298 12.003162851145674 9.6327638230493 7.4273578214333895 5.502322005640725 3.9163895098987074 2.6782676492638178 1.7597472415623396 1.110899653824231 0.6737946999085469 0.3926526838305625 0.2198455963042534 0.11826471566155732 0.06112527611295737 0.030353913807886636
77.10515858035663 81.87307530779819 83.5270211411272 82.39874333317032 80.9288348171332 79.42158526165467 77.8800783071405 76.30742036013362 74.70673031371956 73.08112942200037 71.43373137359575 72.6149037073691 71.17703227626097 67.03200460356393 64.68764247621299 62.97703814010032 61.26263941844161 59.452054797019436 55.989836656540206 50.66169923655897 44.04316545059993 36.78794411714422 29.523016692401427 27.253179303401264 25.66607769535559 23.22362747297589 20.189651799465537 16.863814726859555 13.53352832366127 10.435048475476501 7.730474044329972 5.502322005640725 3.7628256807176226 2.4723526470339383 1.5607557919982848 0.9466462401710334 0.5516564420760778 0.308871540823677 0.1661557273173933 0.08587780939743375 0.042645658068565434
85.21437889662113 90.48374180359595 92.31163463866358 91.39311852712281 90.2668412080942 89.08314846343089 87.84467393499314 86.55414622217661 85.21437889662113 83.82826032242333 82.39874333317032 83.5270211411272 81.87307530779819 77.8800783071405 76.3074203601336 74.70673031371956 73.0811294220004 71.17703227626097 67.03200460356393 60.653065971263345 52.729242404304856 44.04316545059993 37.531109885139955 36.78794411714422 34.64558103300575 31.348618088260526 27.253179303401264 22.763768838381278 18.26835240527347 14.0858420921045 10.435048475476501 7.4273578214333895 5.079283386489853 3.337326996032607 2.1067999523041445 1.2778387649535765 0.744658307092434 0.41693296979041133 0.2242867719485806 0.11592291739045918 0.05756561714872758
90.48374180359595 96.07894391523232 98.01986733067552 97.47249016017939 96.81192569165627 96.07894391523232 95.2752609803211 94.40274829178357 93.46342525174487 92.45945147602106 91.39311852712281 92.31163463866358 90.48374180359595 87.84467393499314 86.55414622217658 85.21437889662113 83.82826032242335 81.87307530779819 77.10515858035663 69.76763260710311 60.653065971263345 50.66169923655897 48.67522559599717 47.71139155210344 44.932896411722155 40.65696597405991 35.34546819587803 29.523016692401427 23.692775868212184 18.26835240527347 13.53352832366127 9.6327638230493 6.587475442640296 4.32827979019659 2.7323722447292553 1.6572675401761259 0.9657697627537771 0.5407329126440966 0.29088426258125877 0.1503439192977573 0.07465858083766795
92.31163463866358 98.01986733067552 100.0 99.96000799893345 99.84012793176062 99.64064722309934 99.3620436379149 99.0049833749168 98.57031841224429 98.05908312024283 97.47249016017939 98.01986733067552 96.07894391523232 95.2752609803211 94.40274829178355 93.46342525174487 92.45945147602107 90.48374180359595 85.21437889662113 77.10515858035663 67.03200460356393 59.452054797019436 60.653065971263345 59.452054797019436 55.989836656540206 50.66169923655897 44.04316545059993 36.78794411714422 29.523016692401427 22.763768838381278 16.863814726859555 12.003162851145674 8.208499862389877 5.393368730035602 3.404745473459935 2.065082518171257 1.2034232284723767 0.6737946999085469 0.3624641108965754 0.18734005942224272 0.09303032032049485
90.48374180359595 96.07894391523232 98.05908312024285 98.5703184122443 99.0049833749168 99.3620436379149 99.64064722309934 99.84012793176062 99.96000799893345 100.0 99.96000799893345 100.0 99.64064722309934 99.3620436379149 99.0049833749168 98.57031841224429 98.05908312024285 96.07894391523232 90.48374180359595 81.87307530779819 71.17703227626097 71.17703227626097 72.6149037073691 71.17703227626097 67.03200460356393 60.653065971263345 52.729242404304856 44.04316545059993 35.34546819587803 27.253179303401264 20.189651799465537 14.370394977770298 9.827358560436156 6.457034689316848 4.07622039783662 2.4723526470339383 1.4407591843112353 0.8066787139099616 0.43394832707388964 0.2242867719485806 0.11137751478448037
85.21437889662113 90.48374180359595 92.45945147602109 93.4634252517449 94.40274829178357 95.2752609803211 96.07894391523232 96.81192569165627 97.47249016017939 98.05908312024285 98.5703184122443 99.18367802119474 99.96721848906594 99.64064722309934 99.84012793176063 99.96000799893345 100.0 98.01986733067552 92.31163463866358 83.5270211411272 77.10515858035663 81.87307530779819 83.5270211411272 81.87307530779819 77.10515858035663 69.76763260710311 60.653065971263345 50.66169923655897 40.65696597405991 31.348618088260526 23.22362747297589 16.529888822158657 11.304153064044986 7.4273578214333895 4.688769521998851 2.843882471418451 1.6572675401761259 0.9279013887064737 0.4991593906910219 0.25799119720271807 0.1281146370384212
77.10515858035663 81.87307530779819 83.82826032242336 85.21437889662116 86.55414622217661 87.84467393499314 89.08314846343089 90.2668412080942 91.39311852712282 92.45945147602109 93.4634252517449 96.77447783045844 99.47678340734315 99.86893841982133 97.92350174709516 97.47249016017939 98.01986733067552 96.07894391523232 90.48374180359595 81.87307530779819 85.3808131775472 90.48374180359595 92.31163463866358 90.48374180359595 85.21437889662113 77.10515858035663 67.03200460356393 55.989836656540206 44.932896411722155 34.64558103300575 25.66607769535559 18.26835240527347 12.493021219858248 8.208499862389877 5.1818917172725865 3.1429762018367717 1.831563888873417 1.0254896296404015 0.5516564420760778 0.28512436826796334 0.14158857103468014
67.03200460356393 71.17703227626097 73.08112942200042 74.70673031371959 76.30742036013362 77.8800783071405 79.42158526165467 80.9288348171332 82.39874333317034 83.82826032242336 86.53768831009032 92.88848560673902 97.37921689114141 99.7053529717098 99.7053529717098 97.37921689114143 92.88848560673902 90.48374180359595 85.21437889662113 86.85104946221342 92.0867586607533 96.12582312577615 98.01986733067552 96.07894391523232 90.48374180359595 81.87307530779819 71.17703227626097 59.452054797019436 47.71139155210344 36.78794411714422 27.253179303401264 19.398004229089185 13.265546508012175 8.716085146198127 5.502322005640725 3.337326996032607 1.9448214745385404 1.0889023668554452 0.5857689713335614 0.308871540823677 0.2198455963042534
55.989836656540206 59.452054797019436 61.26263941844164 62.97703814010034 64.687642476213 66.39157633354736 68.08590290919247 69.76763260710311 71.43373137359578 73.08112942200042 80.12042711510412 87.70883583650914 93.77589976964377 97.92350174709513 99.86893841982132 99.47678340734316 96.77447783045844 91.9491548646078 88.26045307206392 93.21664345101955 96.9262784720537 99.22255009257893 100.0 98.01986733067552 92.31163463866358 83.5270211411272 72.6149037073691 60.653065971263345 48.67522559599717 37.531109885139955 27.803730045319412 19.789869908361467 13.53352832366127 8.892161745938635 5.613476283413374 3.404745473459935 1.9841094744370291 1.110899653824231 0.744658307092434 0.5516564420760778 0.3926526838305625
44.932896411722155 47.71139155210344 49.38121980333464 51.04819497422894 52.72924240430488 54.42209263252074 56.12437364432349 57.83361528709441 59.54725422392701 63.83602760491118 72.97290579603921 81.47140935183414 88.8375597074704 94.60973236819378 98.40627892320528 99.96721848906594 99.18367802119474 96.1104503730301 94.26837765894699 97.63809617905923 99.56193791306843 99.95123140794072 98.78789371893664 96.07894391523232 90.48374180359595 81.87307530779819 71.17703227626097 59.452054797019436 47.71139155210344 36.78794411714422 27.253179303401264 19.398004229089185 13.265546508012175 8.716085146198127 5.502322005640725 3.337326996032607 2.065082518171257 1.6572675401761259 1.2778387649535765 0.9466462401710334 0.6737946999085469
34.64558103300575 36.78794411714422 38.273975944806914 39.78819204512047 41.32923777703442 42.89563986790729 44.4858066222941 46.09802862108334 47.73047992614459 56.081698550071145 65.38233750134295 74.44705627876544 82.79086481403604 89.92182464331978 95.38840891540283 98.82661067451993 100.0 98.82661067451993 98.2592319672551 99.80506828790685 99.80506828790683 98.25923196725509 95.23901680108287 90.88186077956918 85.21437889662113 77.10515858035663 67.03200460356393 55.989836656540206 44.932896411722155 34.64558103300575 25.66607769535559 18.26835240527347 12.493021219858248 8.208499862389877 5.1818917172725865 4.07622039783662 3.404745473459935 2.7323722447292553 2.1067999523041445 1.5607557919982848 1.110899653824231
25.66607769535559 27.26408275566771 28.52469450573053 29.819727942988738 31.14862758474071 32.510729912059574 33.905260725444215 37.23932430608383 44.04316545059994 51.28330742701891 58.78875962514517 66.92220609479445 75.90119897660706 84.07653904151098 90.95965782596527 96.1104503730301 99.18367802119474 99.96721848906594 99.95123140794074 99.56193791306843 97.63809617905922 94.26837765894696 89.60526580751245 83.85361709393693 77.25575454538243 69.76763260710311 60.653065971263345 50.66169923655897 40.65696597405991 31.348618088260526 23.22362747297589 16.529888822158657 11.304153064044986 8.239460692749875 7.4273578214333895 6.457034689316848 5.393368730035602 4.32827979019659 3.337326996032607 2.4723526470339383 1.7597472415623396
18.26835240527347 19.42906587854883 20.4415620978264 21.65884873346052 26.739604894561314 32.50089888534078 38.89166429108139 45.8182453147595 53.14239792779586 60.68266005019396 68.21954869940605 75.50467510300425 82.27343184844025 88.26045307206392 93.21664345101955 96.9262784720537 99.22255009257891 100.0 99.86893841982133 97.92350174709516 93.77589976964381 88.2604530720639 82.27343184844025 75.50467510300425 68.21954869940603 60.682660050193924 52.729242404304856 44.04316545059993 35.34546819587803 27.253179303401264 20.189651799465537 14.869138644136342 13.648652164435232 12.504784892454513 11.304153064044986 9.827358560436156 8.208499862389877 6.587475442640296 5.079283386489853 3.7628256807176226 2.6782676492638178
14.0858420921045 18.26835240527347 22.86392703430225 28.117430827862698 34.042481833624464 40.57771265420157 47.61838691968745 55.015183478437066 62.57649311146427 70.07460287486576 77.25575454538244 83.85361709393693 89.60526580751245 94.26837765894699 97.63809617905923 99.56193791306843 99.95123140794074 98.78789371893664 99.7053529717098 99.7053529717098 97.37921689114143 92.88848560673902 86.53768831009032 78.74019740377996 69.97380835399969 60.653065971263345 50.66169923655897 40.65696597405991 31.348618088260526 24.78184583820933 23.02774049753086 21.35755369414884 19.77125291076204 18.26835240527347 16.529888822158657 14.370394977770298 12.003162851145674 9.6327638230493 7.4273578214333895 5.502322005640725 3.9163895098987074
18.26835240527347 23.692775868212184 29.523016692401427 35.62241462540439 42.295571212807396 49.440995184622565 56.898429913470274 64.46650559001006 71.90991020695327 78.97036259182372 85.3808131775472 90.88186077956918 95.23901680108287 98.2592319672551 99.80506828790685 99.80506828790683 98.2592319672551 95.23901680108287 97.92350174709513 99.86893841982132 99.47678340734316 96.77447783045844 91.9491548646078 85.32620877414709 77.10515858035663 67.03200460356393 55.989836656540206 44.932896411722155 35.88175717011547 33.6889599575647 31.570685295773632 29.52996410187459 27.569210757107232 25.66607769535559 23.22362747297589 20.189651799465537 16.863814726859555 13.53352832366127 10.435048475476501 7.730474044329972 5.502322005640725
22.763768838381278 29.523016692401427 36.78794411714422 44.04316545059993 51.28330742701891 58.78875962514517 66.34884039597928 73.7213272967575 80.6443087462349 86.85104946221342 92.0867586607533 96.12582312577615 98.78789371893664 99.95123140794074 99.56193791306843 97.63809617905922 94.26837765894699 89.60526580751245 94.60973236819378 98.40627892320528 99.96721848906594 99.18367802119474 96.1104503730301 90.48374180359595 81.87307530779819 71.17703227626097 59.452054797019436 49.07773551395121 46.558034945455404 44.08463735474107 41.66413864291037 39.302488325720105 37.004981507860045 34.64558103300575 31.348618088260526 27.253179303401264 22.763768838381278 18.26835240527347 14.0858420921045 10.435048475476501 7.4273578214333895
27.253179303401264 35.34546819587803 44.04316545059993 52.729242404304856 60.68266005019396 68.21954869940605 75.50467510300425 82.27343184844025 88.26045307206392 93.21664345101955 96.9262784720537 99.22255009257891 100.0 99.22255009257891 96.92627847205368 93.21664345101954 88.26045307206392 85.2946184188465 89.92182464331978 95.38840891540283 98.82661067451993 100.0 98.01986733067552 92.31163463866358 83.5270211411272 72.6149037073691 63.411217262474295 60.78164385126088 58.15155029760653 55.53063730019505 52.92812662876225 50.35271493334611 47.81253449482637 44.932896411722155 40.65696597405991 35.34546819587803 29.523016692401427 23.692775868212184 18.26835240527347 13.53352832366127 9.6327638230493
31.348618088260526 40.65696597405991 50.66169923655897 60.653065971263345 69.76763260710311 77.25575454538244 83.85361709393693 89.60526580751245 94.26837765894699 97.63809617905923 99.56193791306843 99.95123140794074 98.78789371893664 98.01986733067552 97.19308799281062 96.10155338539869 94.8435801182684 93.42604735772136 91.85663161249867 90.95965782596527 96.07894391523232 98.01986733067552 96.07894391523232 90.48374180359595 81.87307530779819 77.39598391686225 74.95851984997681 72.46129367342917 69.91553237357688 67.3323479502232 64.72265938056665 62.0971191741329 59.466045161655934 55.989836656540206 50.66169923655897 44.04316545059993 36.78794411714422 29.523016692401427 22.763768838381278 16.863814726859555 12.003162851145674
34.64558103300575 44.932896411722155 55.989836656540206 67.03200460356393 77.10515858035663 85.21437889662113 90.88186077956918 95.23901680108287 98.2592319672551 99.80506828790685 99.80506828790683 98.2592319672551 98.01986733067552 100.0 99.90592662970677 99.62423717383317 99.15651861160379 98.5053993546222 97.67452464450061 96.66852256215083 95.49296109218375 94.15429679968496 92.65981578116387 91.01756764503793 89.23629335816676 87.32534786249288 85.2946184188465 83.15443967278821 80.91550645964645 78.58878537259825 76.18542610898376 73.71667358654463 71.17703227626097 67.03200460356393 60.653065971263345 52.729242404304856 44.04316545059993 35.34546819587803 27.253179303401264 20.189651799465537 14.370394977770298
36.78794411714422 47.71139155210344 59.452054797019436 71.17703227626097 81.87307530779819 90.48374180359595 96.07894391523232 98.78789371893664 99.95123140794074 99.56193791306843 97.63809617905922 94.26837765894699 96.07894391523232 98.11216475072418 98.85367972086584 99.41349142231107 99.78845935738072 99.97647335618429 99.97647335618429 99.78845935738072 99.41349142231107 98.85367972086584 98.11216475072418 97.19308799281062 96.10155338539869 94.8435801182684 93.42604735772136 91.85663161249867 90.14373753817327 88.29642305206787 86.32431969112068 84.23754919059094 81.87307530779819 77.10515858035663 69.76763260710311 60.653065971263345 50.66169923655897 40.65696597405991 31.348618088260526 23.22362747297589 16.529888822158657
37.531109885139955 48.67522559599717 60.653065971263345 72.6149037073691 83.5270211411272 92.31163463866358 98.01986733067552 100.0 99.22255009257891 96.92627847205368 93.21664345101954 88.26045307206392 90.48374180359595 92.65981578116387 94.15429679968496 95.49296109218375 96.66852256215084 97.67452464450061 98.5053993546222 99.15651861160379 99.62423717383317 99.90592662970677 100.0 99.90592662970677 99.62423717383317 99.15651861160379 98.5053993546222 97.67452464450061 96.66852256215084 95.49296109218375 94.15429679968496 92.65981578116387 90.48374180359595 85.21437889662113 77.10515858035663 67.03200460356393 55.989836656540206 44.932896411722155 34.64558103300575 25.66607769535559 18.26835240527347
36.78794411714422 47.71139155210344 59.452054797019436 71.17703227626097 81.87307530779819 90.48374180359595 96.07894391523232 98.01986733067552 96.12582312577615 92.0867586607533 86.85104946221341 80.6443087462349 81.87307530779819 84.23754919059094 86.32431969112068 88.29642305206787 90.14373753817327 91.85663161249867 93.42604735772136 94.8435801182684 96.10155338539869 97.19308799281062 98.11216475072418 98.85367972086584 99.41349142231107 99.78845935738072 99.97647335618429 99.97647335618429 99.78845935738072 99.41349142231107 98.85367972086584 98.11216475072418 96.07894391523232 90.48374180359595 81.87307530779819 71.17703227626097 59.452054797019436 47.71139155210344 36.78794411714422 27.253179303401264 19.398004229089185
34.64558103300575 44.932896411722155 55.989836656540206 67.03200460356393 77.10515858035663 85.21437889662113 90.48374180359595 92.31163463866358 90.48374180359595 85.38081317754718 78.97036259182369 71.90991020695327 71.17703227626097 73.71667358654463 76.18542610898376 78.58878537259825 80.91550645964641 83.15443967278817 85.2946184188465 87.3253478624929 89.23629335816676 91.01756764503793 92.65981578116387 94.15429679968496 95.49296109218375 96.66852256215084 97.67452464450061 98.5053993546222 99.15651861160379 99.62423717383317 99.90592662970677 100.0 98.01986733067552 92.31163463866358 83.5270211411272 72.6149037073691 60.653065971263345 48.67522559599717 37.531109885139955 27.803730045319412 19.789869908361467
31.348618088260526 40.65696597405991 50.66169923655897 60.653065971263345 69.76763260710311 77.10515858035663 81.87307530779819 83.5270211411272 81.87307530779819 77.10515858035663 70.07460287486573 62.57649311146427 59.466045161655934 62.0971191741329 64.72265938056665 67.3323479502232 69.91553237357684 72.46129367342913 74.95851984997685 77.39598391686229 79.76242579975673 82.0466372915723 84.23754919059094 86.32431969112068 88.29642305206787 90.14373753817327 91.85663161249867 93.42604735772136 94.8435801182684 96.10155338539869 97.19308799281062 98.01986733067552 96.07894391523232 90.48374180359595 81.87307530779819 71.17703227626097 59.452054797019436 47.71139155210344 36.78794411714422 27.253179303401264 19.398004229089185
27.253179303401264 35.34546819587803 44.04316545059993 52.729242404304856 60.653065971263345 67.03200460356393 71.17703227626097 72.6149037073691 71.17703227626097 67.03200460356393 60.653065971263345 53.14239792779583 47.81253449482637 50.35271493334611 52.92812662876225 55.53063730019505 58.15155029760649 60.78164385126084 63.41121726247434 66.03014383014943 68.62793020752937 71.19378178372018 73.71667358654463 76.18542610898376 78.58878537259825 80.91550645964641 83.15443967278817 85.2946184188465 87.32534786249288 89.23629335816676 91.01756764503793 92.31163463866358 90.48374180359595 85.21437889662113 77.10515858035663 67.03200460356393 55.989836656540206 44.932896411722155 34.64558103300575 25.66607769535559 18.26835240527347
22.763768838381278 29.523016692401427 36.78794411714422 44.04316545059993 50.66169923655897 55.989836656540206 59.452054797019436 60.653065971263345 59.452054797019436 55.989836656540206 50.66169923655897 44.04316545059993 37.23932430608383 39.302488325720105 41.66413864291037 44.08463735474107 46.55803494545536 49.07773551395117 51.636511502193784 54.226525331398356 56.839358069069135 59.466045161655934 62.0971191741329 64.72265938056665 67.3323479502232 69.91553237357684 72.46129367342913 74.95851984997685 77.39598391686229 79.76242579975673 82.0466372915723 83.5270211411272 81.87307530779819 77.10515858035663 69.76763260710311 60.653065971263345 50.66169923655897 40.65696597405991 31.348618088260526 23.22362747297589 16.529888822158657
18.26835240527347 23.692775868212184 29.523016692401427 35.34546819587803 40.65696597405991 44.932896411722155 47.71139155210344 48.67522559599717 47.71139155210344 44.932896411722155 40.65696597405991 35.34546819587803 29.537421677083948 29.52996410187459 31.570685295773632 33.6889599575647 35.881757170115435 38.14541168455799 40.47561110381707 42.86738851840195 45.315121023686196 47.81253449482637 50.35271493334611 52.92812662876225 55.53063730019505 58.15155029760649 60.78164385126084 63.41121726247434 66.03014383014943 68.62793020752937 71.19378178372018 72.6149037073691 71.17703227626097 67.03200460356393 60.653065971263345 52.729242404304856 44.04316545059993 35.34546819587803 27.253179303401264 20.189651799465537 14.370394977770298
14.0858420921045 18.26835240527347 22.763768838381278 27.253179303401264 31.348618088260526 34.64558103300575 36.78794411714422 37.531109885139955 36.78794411714422 34.64558103300575 31.348618088260526 27.253179303401264 22.763768838381278 21.35755369414884 23.02774049753086 24.78184583820933 26.619413335110593 28.539464052321605 30.540465406844607 32.620303193791614 34.776257280196894 37.004981507860045 39.302488325720105 41.66413864291037 44.08463735474107 46.55803494545536 49.07773551395117 51.636511502193784 54.226525331398356 56.839358069069135 59.452054797019436 60.653065971263345 59.452054797019436 55.989836656540206 50.66169923655897 44.04316545059993 36.78794411714422 29.523016692401427 22.763768838381278 16.863814726859555 12.003162851145674
10.435048475476501 13.53352832366127 16.863814726859555 20.189651799465537 23.22362747297589 25.66607769535559 27.253179303401264 27.803730045319412 27.253179303401264 25.66607769535559 23.22362747297589 20.189651799465537 16.863814726859555 14.869138644136342 16.168300061914653 17.547910655751977 19.00942467809171 20.5539377158505 22.182148261974856 23.89432001038362 25.690245375016485 27.569210757107232 29.52996410187459 31.570685295773632 33.6889599575647 35.881757170115435 38.14541168455799 40.47561110381707 42.86738851840195 45.315121023686196 47.71139155210344 48.67522559599717 47.71139155210344 44.932896411722155 40.65696597405991 35.34546819587803 29.523016692401427 23.692775868212184 18.26835240527347 13.53352832366127 9.6327638230493
7.4273578214333895 9.6327638230493 12.003162851145674 14.370394977770298 16.529888822158657 18.26835240527347 19.398004229089185 19.789869908361467 19.398004229089185 18.26835240527347 16.529888822158657 14.370394977770298 12.003162851145674 9.964736780637299 10.927557755176396 11.960873419273401 13.06727956429053 14.24918337069377 15.50876704925585 16.84795036798601 18.268352405273482 19.77125291076204 21.35755369414884 23.02774049753086 24.78184583820933 26.619413335110593 28.539464052321605 30.540465406844607 32.620303193791614 34.776257280196894 36.78794411714422 37.531109885139955 36.78794411714422 34.64558103300575 31.348618088260526 27.253179303401264 22.763768838381278 18.26835240527347 14.0858420921045 10.435048475476501 7.4273578214333895
5.079283386489853 6.587475442640296 8.208499862389877 9.827358560436156 11.304153064044986 12.493021219858248 13.265546508012175 13.53352832366127 13.265546508012175 12.493021219858248 11.304153064044986 9.827358560436156 8.208499862389877 6.587475442640296 7.1093120433112444 7.847766817837113 8.64663463746579 9.508907677188683 10.437504069882296 11.435237510596124 12.504784892454513 13.648652164435232 14.869138644136342 16.168300061914653 17.547910655751977 19.00942467809171 20.5539377158505 22.182148261974856 23.89432001038362 25.690245375016485 27.253179303401264 27.803730045319412 27.253179303401264 25.66607769535559 23.22362747297589 20.189651799465537 16.863814726859555 13.53352832366127 10.435048475476501 7.730474044329972 5.502322005640725
3.337326996032607 4.32827979019659 5.393368730035602 6.457034689316848 7.4273578214333895 8.208499862389877 8.716085146198127 8.892161745938635 8.716085146198127 8.208499862389877 7.4273578214333895 6.457034689316848 5.393368730035602 4.32827979019659 4.452231717904766 4.9564987671301655 5.507503099425351 6.1082527962148125 6.761791251905559 7.471176914893567 8.239460692749875 9.069661039966528 9.964736780637299 10.927557755176396 11.960873419273401 13.06727956429053 14.24918337069377 15.50876704925585 16.84795036798601 18.26835240527347 19.398004229089185 19.789869908361467 19.398004229089185 18.26835240527347 16.529888822158657 14.370394977770298 12.003162851145674 9.6327638230493 7.4273578214333895 5.502322005640725 3.9163895098987074
2.1067999523041445 2.7323722447292553 3.404745473459935 4.07622039783662 4.688769521998851 5.1818917172725865 5.502322005640725 5.613476283413374 5.502322005640725 5.1818917172725865 4.688769521998851 4.07622039783662 3.404745473459935 2.7323722447292553 2.6839452843659166 3.013350368337274 3.376821531843125 3.7770183114696363 4.216698765842744 4.698709201638813 5.225971816911066 5.801470166751848 6.428232375612924 7.1093120433112444 7.847766817837113 8.64663463746579 9.508907677188683 10.437504069882296 11.435237510596124 12.493021219858248 13.265546508012175 13.53352832366127 13.265546508012175 12.493021219858248 11.304153064044986 9.827358560436156 8.208499862389877 6.587475442640296 5.079283386489853 3.7628256807176226 2.6782676492638178
1.2778387649535765 1.6572675401761259 2.065082518171257 2.4723526470339383 2.843882471418451 3.1429762018367717 3.337326996032607 3.404745473459935 3.337326996032607 3.1429762018367717 2.843882471418451 2.4723526470339383 2.065082518171257 1.6572675401761259 1.5574541591661726 1.763477713650243 1.9929994678545768 2.248158333176094 2.531215438244928 2.844551698964827 3.190663884851605 3.572159039602988 3.9917471190745513 4.452231717904766 4.9564987671301655 5.507503099425351 6.1082527962148125 6.761791251905559 7.471176914893567 8.208499862389877 8.716085146198127 8.892161745938635 8.716085146198127 8.208499862389877 7.4273578214333895 6.457034689316848 5.393368730035602 4.32827979019659 3.337326996032607 2.4723526470339383 1.7597472415623396
0.744658307092434 0.9657697627537771 1.2034232284723767 1.4407591843112353 1.6572675401761259 1.831563888873417 1.9448214745385404 1.9841094744370291 1.9448214745385404 1.831563888873417 1.6572675401761259 1.4407591843112353 1.2034232284723767 0.9657697627537771 0.8699666492643384 0.993427176234009 1.1322751430943536 1.2881024751743575 1.4626195048704556 1.6576575313592152 1.8751705171227004 2.1172357840671308 2.3860535676080317 2.6839452843659166 3.013350368337274 3.376821531843125 3.7770183114696363 4.216698765842744 4.698709201638813 5.1818917172725865 5.502322005640725 5.613476283413374 5.502322005640725 5.1818917172725865 4.688769521998851 4.07622039783662 3.404745473459935 2.7323722447292553 2.1067999523041445 1.5607557919982848 1.110899653824231
