0.023174109080877237 0.04122508966078797 0.07184601732487104 0.12266659671727102 0.20517878877489645 0.3362181351338253 0.5397496085237357 0.8488795374290186 1.3079234353697626 1.974245269206339 2.9194592538148174 4.229473014696064 6.002782755838678 8.346444732722569 11.36927955951684 15.172141933349215 19.8355102122424 25.405186234694426 31.877475279930206 39.18573346849645 47.190499096739394 55.67544394927255 64.35100512428693 72.86676827712603 80.83253707047014 87.84669753984048 93.52919506721386 97.5554376890844 99.68694677787286 99.79473637221268 97.87223449127383 94.03594643835802 88.51376700089715 81.62257204129916 73.73815306868039 72.55740972485731 82.81554046391759 91.27917443836766 97.1541506316037 99.8575273313831 99.11286932364295 94.99682341596697 87.92612019812871 78.58805304021195 67.83048805139305 56.53574857911941 45.50416450515923 35.36787242185873 26.545842823752473 19.240391055222197 13.466696221178928 9.102025022041394 5.940797914031886 3.744392153181914 2.2790175327569453 1.831563888873417 3.1429762018367717 5.1818917172725865 8.208499862389877 12.493021219858248 18.26835240527347 25.66607769535559 34.64558103300575 44.932896411722155 55.989836656540206 67.03200460356393 77.10515858035663 85.21437889662113 90.48374180359595 92.31163463866358 97.4813182571583 99.96604350237315 98.50190088980136 93.26049518414705 84.84218022945397 74.16293711698928 62.29067249618738 50.271299960149385 38.983264947931666 29.046733561899885 20.795884190039544 14.306008444321613 9.45628519051476 6.005976709301664 3.6652847804863193 2.1492790281097056 1.2109853135176616 0.6556105732968891 0.3410468318280605 0.17046808705040314 0.08187157655926094 0.03778193677614248 0.016753142327681585 0.007137881552582439 0.002922155974844795 0.0011494721344342859 4.344647033103043E-4 1.5778711982871252E-4 5.5061697478810385E-5 1.846242060899196E-5 5.94824274101344E-6
0.04061558717930674 0.07082205044717588 0.1209836782825438 0.20247322484225394 0.3319639653089028 0.5332081942571621 0.8390449235440298 1.2934693469363312 1.9534828189190638 2.8903176736717078 4.189518272469195 5.949289833990068 8.276537615102466 11.28014771960406 15.06133292869262 19.70128520490863 25.24691020249683 31.695998703514423 38.98371050637719 46.97258208141586 55.44829832958265 64.1231042592389 72.64795320143863 80.633359545739 87.6776002416429 93.39961415019063 97.47293369047182 99.65647480111804 99.81815345480803 97.94811226136905 94.15971534134312 88.67817184543269 81.81837571368771 73.95499354405649 65.48874702672913 68.36177000667477 79.07195848671851 88.32049314999182 95.26431910345703 99.22676732028471 99.8061287675821 96.94275804237215 90.92919048467314 82.36089755493887 72.03915494987473 60.84794861962164 49.63100456817756 39.092188375381745 29.734229745640423 21.84002822902916 15.49100131324581 10.61049338378083 7.01813082726876 4.482673764976665 2.7649201899030165 1.9640909276505112 3.3599390157541014 5.525657848461741 8.736135754589371 13.278149316923423 19.401643117458026 27.253179303401264 36.78794411714422 47.71139155210344 59.452054797019436 71.17703227626097 81.87307530779819 90.48374180359595 96.07894391523232 98.01986733067552 97.28655045337037 99.93964086496872 98.64697267624123 93.56011288360097 85.26262710457854 74.65994754444849 62.81706610132032 50.78419988539037 39.449415958907565 29.44513427414654 21.117742886329026 14.552662398209144 9.636035883345354 6.130774754899405 3.7479458697546137 2.2015687754376434 1.242602439461905 0.6738964124451347 0.3511681215656834 0.17583204305074066 0.08459446688279566 0.0391063147119705 0.017370520088531582 0.007413780953501741 0.0030403786656916245 0.0011980545703616282 4.5361407509736043E-4 1.6502792569502757E-4 5.768851474242537E-5 1.93768096151092E-5 6.25368762647057E-6
0.0698116846860927 0.11932215182922029 0.1998004963612056 0.32775896285167133 0.5267385675630984 0.8293124549980068 1.2791568037898 1.9329112344921 2.861426291272348 4.14988196192904 5.89618976389019 8.207099313583367 11.191555505723105 14.951120610365454 19.567690236857025 25.089263476514862 31.515107124112006 38.78217760371747 46.75500652002452 55.22129418693748 63.895101936134644 72.42876529370189 80.43352906126661 87.50758410118563 93.26888649780598 97.38911461336353 99.62459549757396 99.84015632568658 98.02265499540802 94.28230647226043 88.84161874472379 82.01348288284424 74.17141697599006 65.71589454399755 57.04095656858169 64.0830620858541 75.11584877517468 85.0255980095114 92.93891628493009 98.1014227139139 99.99603968238304 98.42832337621921 93.55934385164726 85.87841889635051 76.12209031372606 65.15791273778329 53.858395933940486 42.99019928825574 33.13716076943082 24.665556820257557 17.729494202983513 12.306415121845234 8.24891005503267 5.339386613814009 3.3374591700160763 2.1014225080074502 3.5776324427987354 5.855457731757617 9.213163323740686 13.936043054527945 20.265297249090015 28.33017562463277 38.07398591455685 49.19151663292454 61.099107989373934 72.95621872654246 83.74763530219154 92.41991806864598 98.04859952080567 100.0 98.01986733067552 99.90570486319014 98.78480238360902 93.85360960530352 85.67869100061974 75.15461647700717 63.343127254876784 51.298461015343996 39.918128271061725 29.846746722122386 21.442964603969134 14.80245177462496 9.818462340259007 6.257693679494652 3.8321819355040754 2.2549604863970028 1.2749488179810613 0.6926399909519989 0.361562493327182 0.18135109412477 0.087401318698449 0.04047406157627427 0.018009289878498994 0.007699763513947284 0.0031631455964960704 0.0012485961055569519 4.735717278199597E-4 1.7258798407486427E-4 6.0436087659588446E-5 2.033495082904656E-5 6.5743210474729185E-6
0.1176817704990259 0.19716024539904806 0.32360262378632165 0.5203400402891262 0.8196812221383356 1.264984644483321 1.9125290879287964 2.832783423201123 4.11056219234048 5.843480542545118 8.138127861387812 11.103501189346678 14.841503734955964 19.434724822224105 24.93224659658265 31.334802332827966 38.58113794368888 46.537777004302725 54.99443738473092 63.66700498840103 72.20921190291867 80.23305291123167 87.33665573063386 93.13701743028523 97.30398397134525 99.59131022390963 99.86074404730158 98.09585955662948 94.40371480904932 89.00410128055594 82.20788633255631 74.38741598012409 65.94289222729566 57.26892585055514 48.72508568700179 59.76840140369376 70.99685160898895 81.43973145145718 90.21180415755013 96.49841869512427 99.67972190882463 99.43132607683219 95.77881024760966 89.09338038289793 80.02970744137929 69.4203524146172 58.15033105831454 47.037839060991566 36.74280643435656 27.71577842231025 20.188852225128525 14.201230301853135 9.6465074596554 6.327673051826063 4.008184929527343 2.451778673516886 3.807198113871277 6.201305717396812 9.710544820767543 14.617962444987242 21.154992516366733 29.432130459003552 39.36527713505047 50.6159877396796 62.56693908512063 74.35067077938928 84.93910152484968 93.28530248643166 98.4921402967359 99.9706959709057 97.54985892860776 99.86424317645648 98.91535907502771 94.14092177863196 86.09028757659827 75.64685348925481 63.868773437804506 51.81401911970889 40.38936114946985 30.251553679952824 21.77155166863135 15.055392365364956 10.003587422323152 6.386758034252306 3.9180155184661523 2.3094727288998818 1.3080384865292132 0.7118511718035088 0.37223643805945844 0.18702926232087635 0.090294487167586 0.041886484146441826 0.018670140163993973 0.007996174188209578 0.003290621354075903 0.001301171597709459 4.943701447745556E-4 1.804807529405029E-4 6.330974295953917E-5 2.1338859507402444E-5 6.910872100569371E-6
0.19455211737414807 0.3194944484617039 0.514011929622702 0.8101503215767457 1.2509517144744682 1.8923349582418396 2.8043873923332683 4.071557077430368 5.791160168254143 8.069621288421404 11.015983032679458 14.732481042852335 19.302388451679548 24.77586007237534 31.155086085572947 38.38059467199772 46.32089808995901 54.76773375603876 63.43882022914799 71.98930037143442 80.0319383991935 87.16482176816069 93.0040123090265 97.21754533088185 99.5566203963174 99.87991574228117 98.16772286301342 94.5239353736359 89.16561306410699 82.40157885950998 74.602983168677 66.16973309228362 57.496988636729604 48.94556474023302 44.4919733991174 55.46237369807749 66.76441212689289 77.61066392436716 87.12194464680555 94.44163901654082 98.86197065087075 99.93665373558953 97.55513552532487 91.96133397178775 83.71247476353973 73.58764293111079 62.466819796799754 51.20633502226415 40.534776513257675 30.985725219153785 22.873116413591454 16.304925102335666 11.223855551603526 7.460967052176349 4.789365354293891 2.9688660749832314 4.049120153812706 6.563732373434633 10.228780411314844 15.324264357532726 22.07080658549391 30.55902994503068 40.67651270654354 52.051188587880404 64.03248832141777 75.72737389618328 86.09703658538547 94.10361347688222 98.87971054907388 99.88283539712516 96.99678233530604 99.8152651848218 99.0386134193322 94.42198703833553 86.49733309704501 76.1365681125128 64.3939215374914 52.330809025102184 40.86307280274461 30.65953695931612 22.103505673944387 15.311499513129261 10.191433805780504 6.517992386901031 4.005469299373264 2.3651242636818184 1.341885676958802 0.7315399845933712 0.38319657435406135 0.19287065918665094 0.09327638563811672 0.04334492456212508 0.01935377961072331 0.00830336881704698 0.0034229760770192004 0.0013558585893398056 5.160430426105822E-4 1.887202292030934E-4 6.631503163641727E-5 2.2390639859203014E-5 7.264103538864833E-6
0.31543394152473553 0.5077535580648823 0.8007188561676768 1.2370568661140244 1.8723274314597071 2.7762365278668755 4.032864735451935 5.739226640711473 8.001577621412467 10.928999288829319 14.624051258432717 19.170680592614946 24.62010438356871 30.975960103164674 38.18055089690133 46.10437429658163 54.541189103411725 63.21055445085497 71.76903803454002 79.83019283765387 86.99208887751959 92.86987653623756 97.12980231106836 99.52052749041272 99.89767059349072 98.2382418874975 94.64296323227242 89.32614773636482 82.59455327373101 74.81811115085253 66.39641013724756 57.72513880063339 49.16634231698629 41.02544902233036 40.534776513257675 51.20633502226415 62.466819796799754 73.58764293111079 83.71247476353973 91.96133397178775 97.55513552532487 99.93665373558953 98.86197065087075 94.44163901654082 87.12194464680555 77.61066392436716 66.76441212689289 55.46237369807749 44.4919733991174 34.46630110721097 25.78323930381965 18.625591508775575 12.993090429515384 8.752752355222428 5.693857759475399 3.57683065596682 4.303891189134464 6.943269444655275 10.768359469891308 16.055279115777193 23.0127736003643 31.71048316722142 42.00679461588721 53.49571752898792 65.49396452410605 77.08437101201466 87.21961703123313 94.87347484739114 99.21063490978064 99.73657266826909 96.43855164908344 99.75878196543832 99.15453770205133 94.69674424708029 86.89974446024766 76.6236698619501 64.9184878680332 52.84876462535423 41.33922038325431 31.070677401917884 22.438827469792056 15.570788099177427 10.38202397165468 6.651421314582365 4.094566095171479 2.4219340432315697 1.376504816214174 0.7517166270744903 0.394449650188081 0.19887948731059116 0.09634948683003576 0.04485076114706487 0.020060937607057867 0.008621714437289093 0.0035603856270289046 0.0014127373969520603 5.386254150957566E-4 1.9732096903755573E-4 6.945773789727813E-5 2.3492488786498684E-5 7.634813258817618E-6
0.4991593906910219 0.7913859349863972 1.2232989586344722 1.8525051006325537 2.7483291653540416 3.9944832892485307 5.687677961106931 7.933994884050481 10.842548201978286 14.516213090254897 19.039600689332314 24.464979980000546 30.7974260714314 37.981009689226156 45.88821010755113 54.31480919867164 62.98221442505887 71.54843222007736 79.62782354761842 86.8184637476152 92.73461555457094 97.04075858337721 99.48303304112953 99.91400784409088 98.30741365818952 94.76079349587488 89.48569896854295 82.78680239902597 75.03279253325258 66.62291634343798 57.95337018770661 49.38741347090897 41.2321892562766 33.723996478515815 36.74280643435656 47.037839060991566 58.15033105831454 69.4203524146172 80.02970744137929 89.09338038289793 95.77881024760966 99.43132607683219 99.67972190882463 96.49841869512427 90.21180415755013 81.43973145145718 70.99685160898895 59.76840140369376 48.5885549234248 38.14398986694045 28.91665453849026 21.168971956307743 14.965157135255055 10.216275309033607 6.7349393178368295 4.287504403099174 4.572011697299369 7.340448639049532 11.329758826831284 16.811308422646132 23.980882217082648 32.886040386335885 43.35516118293663 54.94811697262416 66.94954234885331 78.41970436935614 88.30505766000702 95.59358427165621 99.48433531112116 99.53216459798621 96.20955495097913 99.6948062883811 99.26310583579372 94.96513351759819 87.29743922639221 77.10806826388165 65.44238819088586 53.36781889226 41.81775998774502 31.484954872232194 22.777517150715042 15.833272530948738 10.575380195234677 6.787069396549125 4.185328855096516 2.4799212106218613 1.4119105269685548 0.7723914666891242 0.4060025446668291 0.2050600418771214 0.09951632403738696 0.04640540924567155 0.02079236479862245 0.008951589599041071 0.003703031764963087 0.001471891202867479 5.621535783093277E-4 2.0629810892033878E-4 7.27438884451355E-5 2.464669977364268E-5 8.023835849490151E-6
0.7597014027577577 1.2034232284723767 1.8328665658376326 2.72066364673123 3.9564108663161623 5.636512132225863 7.866871097123475 10.756628007552331 14.408965231246368 18.90914816323291 24.31048728183259 30.619485641318008 37.781974082388274 45.6724099699548 54.08859978271159 62.75380690204456 71.3274902480457 79.42483785816027 86.64395309207315 92.59823484675603 96.95041787140255 99.44413864261125 99.92892679759132 98.37523525857615 94.87742132035761 89.64426046249554 82.9783190734226 75.24701992029101 66.84924467541177 58.181676615539835 49.60877322082104 41.439382060220716 33.9117796474707 27.18757174680091 33.13716076943082 42.99019928825574 53.858395933940486 65.15791273778329 76.12209031372606 85.87841889635051 93.55934385164726 98.42832337621921 99.99603968238304 98.1014227139139 92.93891628493009 85.0255980095114 75.11584877517468 64.0830620858541 52.794019051715615 42.00064761096741 32.266885032149105 23.938001465960358 17.149384181723274 11.864213753193601 7.926093449911886 5.113393405249022 4.853989291149915 7.755800343874926 11.913440959975558 17.592623271543108 24.975073690114368 34.08519189712669 44.72058726928063 56.40687529761343 68.39736582797762 79.7314201349042 89.35161622920546 96.26271695850453 99.70033266828442 99.2699696725717 95.97385843009675 99.62335261183634 99.36429337003187 95.22709623442893 87.69033564558629 77.58967288323817 65.96553773589609 53.88790388678715 42.2986466583706 31.902348250516344 23.119574044423537 16.09896672965281 10.771524535440589 6.924961206713159 4.277780656611833 2.5391050982391956 1.4481176282026582 0.7935750420764012 0.41786226976755664 0.21141671223463884 0.10277949234664281 0.04801032207449042 0.021548833634271555 0.009293384690633876 0.0038511023316781866 0.0015334061498102815 5.866652173049007E-4 2.1566738740282866E-4 7.617976210863105E-5 2.58556669307758E-5 8.432044206725845E-6
1.110899653824231 1.7597472415623396 2.6782676492638178 3.9186455988651843 5.585727158547829 7.80020427865489 10.671236932390492 14.302306358893349 18.779322413007023 24.156626679713302 30.442140428993135 37.58344707241751 45.45697829450418 53.86256656529811 62.52533861053915 71.10621943020962 79.2212431059829 86.4685636488097 92.46073993522889 96.85878395060065 99.40384594809812 99.94242681790033 98.44170382772778 94.9928419069647 89.80182595113087 83.16909614961094 75.46078591460801 67.0753880813763 58.41005187411659 49.83041655084169 41.64702380113926 34.10012354063517 27.353346155635812 21.84002822902916 29.734229745640423 39.092188375381745 49.63100456817756 60.84794861962164 72.03915494987473 82.36089755493887 90.92919048467314 96.94275804237215 99.8061287675821 99.22676732028471 95.26431910345703 88.32049314999182 79.07195848671851 68.36177000667477 57.07341963818337 46.01339557395597 35.823207177295075 26.93236173007057 19.553036264661237 13.70830521399239 9.28075093473737 6.067534618749664 5.150337936997958 8.189852271869563 12.519852134677901 18.399461850608283 25.995240019129675 35.30736702231436 46.10198468261311 57.87042897590256 69.83555208785023 81.01757308615825 90.35759809926908 96.87972912162675 99.85824827675022 98.95044700333186 95.73151403174003 99.54443707665558 99.45807750027923 95.48257507524372 88.07835268575056 78.06839335119614 66.48785122270415 54.408950770739686 42.78183438413497 32.32283542610607 23.464996700427477 16.367884117835384 10.97047882407327 7.065121306042957 4.371944701207651 2.599505226410962 1.4851411357231892 0.8152780645558645 0.4300359720834417 0.2179539834762663 0.10614164987147807 0.049666991588676976 0.022331138923616663 0.009647502271467991 0.004004791433784837 0.0015973714383172041 6.121994342855991E-4 2.254451676438469E-4 7.977189983029265E-5 2.7121889197230824E-5 8.860351214815806E-6
1.5607557919982848 2.4723526470339383 3.7628256807176226 5.502322005640725 7.733992444039117 10.586373194913616 14.196235135429719 18.65012281482346 24.00339853494276 30.26539201595819 37.38543161798301 45.24191945545655 53.6367152248764 62.29681625740773 70.88462706970998 79.01704663498343 86.29230217959993 92.32213638176039 96.76586064802677 99.36215666980985 99.95450732936982 98.50681656049983 95.10705050259898 89.95838919882266 83.35912649538474 75.67408311748669 67.30133949353507 58.63848972605892 50.05233841052006 41.85511080857933 34.289025901014945 27.519740037820643 21.637946083324806 19.240391055222197 26.545842823752473 35.36787242185873 45.50416450515923 56.53574857911941 67.83048805139305 78.58805304021195 87.92612019812871 94.99682341596697 99.11286932364295 99.8575273313831 97.1541506316037 91.27917443836766 82.81554046391759 72.55740972485731 61.38771845291024 50.15462733529231 39.570388645780916 30.148063161825693 22.18085638647582 15.758939786717935 10.811986010240524 7.163310010989213 5.461577105077352 8.643128038518633 13.149420496150613 19.232027447283045 27.04122216574528 36.55193325144824 47.498202781580154 59.337164907571996 71.26219522745771 82.27623135233166 91.32136079274393 97.44356123646824 99.95780491869739 98.57415498698991 95.48257507524372 99.45807750027923 99.54443707665558 95.73151403174003 88.46141006036555 78.54413939295618 67.00924288251149 54.93088981887695 43.26727610275059 32.74639329099801 23.81378287879158 16.640037606924906 11.172264654950752 7.2075742348113785 4.467844310059641 2.6611413019279193 1.522996262619439 0.837511419585719 0.44253093456705594 0.2246764380329841 0.1096055190039077 0.051376949363602126 0.023140098406267837 0.010014357412898873 0.004164299634427058 0.0016638794270440263 6.387967983353103E-4 2.3564846072535127E-4 8.352711502571942E-5 2.844797471076242E-5 9.309711498313527E-6
2.1067999523041445 3.337326996032607 5.079283386489853 7.4273578214333895 10.435048475476501 14.090750208026057 18.521548722519366 23.850803179637513 30.089241949158968 37.18793064042145 45.02723779053825 53.41105140837959 62.068246527351874 70.66272046067552 78.8122557958178 86.11517546964485 92.1824297870815 96.67165184206917 99.31907257882445 99.96516781683638 98.57057070772986 95.22004240014834 90.11394400182063 83.5484029940815 75.88690412927103 67.52709182843653 58.866983906874715 50.27453371496904 42.063639374680704 34.47848443520695 27.68675241519113 21.7810290704156 16.786776181944656 16.864482613935515 23.57950981629597 31.83657323140865 41.509514301416004 52.26353492150634 63.54475389576246 74.6088620879624 84.59231754388375 92.6192421500232 97.92674419557498 99.98415967055428 98.58046874979219 93.85995672943834 86.29777791278154 76.62115061214617 65.69427414341854 54.39214178459596 43.4885166706301 33.577072007585 25.034610686673048 18.024725305469993 12.53216950608888 8.414216041203684 5.788230851266352 9.116145671613966 13.802554118570429 20.0904863607296 28.112808349457318 37.81819553301646 48.90802928525595 60.805422964224974 72.67537034782836 83.50548119370048 92.24131845243588 97.95324107130047 99.99882767392924 98.1417496796046 95.22709623442893 99.36429337003187 99.62335261183634 95.97385843009675 88.83942825606013 79.0168208556585 67.52962648020687 55.45365043148638 43.75492370291743 33.17299773372607 24.165929539021885 16.915439584764943 11.376903372934157 7.352344504694157 4.565502919546287 2.7240332164603216 1.5616984196561845 0.860286168194404 0.45535457827248427 0.23158875727878536 0.11317388768175184 0.0531417674917056 0.023976553332954766 0.010394378047313869 0.004329834149197732 0.0017330257360437735 6.66499396750882E-4 2.462949497760983E-4 8.745250432641206E-5 2.9836645348710496E-5 9.781123246752818E-6
2.7323722447292553 4.32827979019659 6.587475442640296 9.6327638230493 13.53352832366127 18.26835240527347 23.698840916896682 29.913691741098337 36.9909470237686 44.812937600871095 53.18558073104003 61.83963608261188 70.44050688783645 78.60687794546548 85.9371903271387 92.04162579050637 96.57616146217924 99.27459550495279 99.97440782565793 98.63296357643108 95.33181293880854 90.26848418865944 83.73691854502366 76.09924154978395 67.75263798732533 59.09552812520904 50.49699734500111 42.27260575420059 34.66849681332868 27.854382277175056 21.924746442029413 16.90667309045052 12.772157301448809 14.707219605116359 20.838739915389947 28.51294813988639 37.674074022930604 48.06985831855012 59.228794057587066 70.47299536209786 80.97339800484397 89.84456099133975 96.26557517221288 99.6047435986072 99.52193844846956 96.02568718718214 89.47172568502387 80.50335808204605 69.94746382002724 58.68940960086332 47.552932228984865 37.207000113160824 28.11265106723014 20.512034653171245 14.452583048792942 9.833587770946576 6.461127572272682 9.609416054702486 14.479639015774682 20.97496582997016 29.20973243211019 39.10539572782995 50.33019129067719 62.27349873710454 74.07313772118354 84.70343180307674 93.11594618166261 98.40788648033816 99.98124443199572 97.65398289062894 94.96513351759819 99.26310583579372 99.6948062883811 96.20955495097913 89.2123285600288 79.48634773642304 68.04891533684332 55.97716114740901 44.24472802702562 33.60262363353862 24.521432829091193 17.194101903138122 11.584416062846179 7.499456590719572 4.664944076623761 2.7882010448658225 1.6012632156010718 0.8836135483841162 0.46851446409526865 0.23869572314749715 0.11684961067237572 0.054963059494710316 0.024841369058689285 0.010788005325551563 0.004501609047304788 0.001804909353092815 6.953508880211691E-4 2.574030149287423E-4 9.155545871935658E-5 3.129074144741084E-5 1.027563011512522E-5
3.404745473459935 5.393368730035602 8.208499862389877 12.003162851145674 16.863814726859555 22.763768838381278 29.523016692401427 36.79448361479252 44.59902315090267 52.960308776203554 61.610991562670456 70.21799362614081 78.40092044679479 85.75835358283457 91.89973006955378 96.47939348859815 99.22872733660917 99.9822269617459 98.69399252998204 95.4423575044036 90.42200362056543 83.92466606395952 76.31108797874776 67.97797085649466 59.32411606309837 50.71972414726821 42.48200616454039 34.8590606689498 28.02262858065374 22.069098283324777 17.027184220691556 12.870150000202985 9.530307425852255 12.761054413128846 18.323421171457866 25.407173924699922 34.02012850188618 43.989125833035445 54.92682633526241 66.22980459071364 77.11737422649401 86.71231615676858 94.1540774538792 98.72502918776046 99.9643627872073 97.74463425237232 92.29335691678712 84.15457905141548 74.09942776113797 63.0059768123329 51.73428326727543 41.02087473756686 31.409512096458386 23.224547238811642 16.583000539746962 11.434278509342487 7.613497517519496 10.12344130638652 15.181037118782777 21.885551985902207 30.331672400254245 40.41271223131934 51.76335650110543 63.73964648534516 75.4535470878646 85.86822011274297 93.94378425000922 98.806707947672 99.90508610341364 97.11170000485976 94.69674424708029 99.15453770205133 99.75878196543832 96.43855164908344 89.58003308726423 79.952630210503 68.56702235245871 56.501349657515966 44.73663887428599 34.035244854882706 24.880288074610178 17.476035865286992 11.794823538285206 7.648934923070221 4.766191434057368 2.85366504338739 1.6417064574846818 0.9075049765048662 0.48201829450930733 0.2460022197608768 0.12063561087264836 0.05684248125130652 0.025735435648133045 0.011195693982816196 0.004679845458104297 0.0018796327431426121 7.253965565000023E-4 2.689917591365234E-4 9.584367509688304E-5 3.2813226706378035E-5 1.0794323203076488E-5
4.07622039783662 6.457034689316848 9.827358560436156 14.370394977770298 20.189651799465537 27.253179303401264 35.34546819587803 44.04316545059993 52.735241095147934 61.38231958395936 69.99518794037176 78.19439066812994 85.57867208960957 91.756748339566 96.38135195208083 99.18147002067757 99.98862489159326 98.75365498831215 95.55167152970341 90.57449619186228 84.11163848350304 76.52243601620569 68.203083307642 59.552741376226656 50.94270893440467 42.69183678577605 35.05017359902516 28.191490249824547 22.21408465286672 17.14831051140023 12.968710122658834 9.608481425477375 7.3109133101771455 11.016432346208525 16.03024285729662 22.52521914742947 30.56523510120927 40.05126605993005 50.67976009050524 61.927371142534994 73.07360462381854 83.26609746545898 91.62324789628869 97.35829232847183 99.90103909763988 98.9912608629619 94.7225757626323 87.52657514690272 78.10092254691968 67.2980042734644 55.9987070362201 44.99700484532298 34.915559549749865 26.162798647888845 18.931245353346394 13.228297761403917 8.926033918677293 10.658713097817172 15.907084225779633 22.822287835613185 31.478248954709553 41.73925977194438 53.20613466688899 65.20208227881969 76.81464206831657 86.99801558990843 94.72344214837695 99.149010871749 99.77048652911901 96.51583754110948 94.42198703833553 99.0386134193322 99.8152651848218 96.66079797221128 89.9424648075924 80.41557865953912 69.08386002923211 57.02614281863424 45.23060500429147 34.47083424220219 25.242489768151337 17.761252213437604 12.008146330338192 7.800803878737396 4.869268745508593 2.920445647739465 1.683044150791437 0.9319720485976395 0.4958739152998278 0.2535132350675851 0.12453488062504678 0.0587817319404088 0.02665966849333246 0.011617912713240402 0.004864771783118583 0.0019573019609764927 7.566833688212394E-4 2.8108103487643315E-4 1.003251682307181E-4 3.4407193284007124E-5 1.1338343115889598E-5
4.688769521998851 7.4273578214333895 11.304153064044986 16.529888822158657 23.22362747297589 31.348618088260526 40.65696597405991 50.66169923655897 60.653065971263345 69.77209708476681 77.98729598281795 85.39815272202975 91.61268635332533 96.28204093361595 99.13282556237398 99.99360134229838 98.81194842808354 95.65975049473766 90.7259558303752 84.29782875357446 76.73327826294354 68.42796819822703 59.78139769418516 51.16594648517224 42.90209376069137 35.24183316383085 28.360966176064416 22.35970558244857 17.270052881658316 13.067839200467352 9.687158911475677 7.035121368230057 6.196484202994042 9.462236767186868 13.953143724221833 19.869187918257392 27.3223442863672 36.28153012684622 46.524640114135266 57.611640623043584 68.89175623630281 79.55254213697911 88.70960819164483 95.52500137912367 99.33292793931791 99.74685560565003 96.72416378778902 90.57337403183587 81.90226299154251 71.51893681523798 60.30814780148299 49.108958538497255 38.61670818976046 29.323754130991865 21.502733938467298 15.226412314131657 10.411931042318614 11.215710911109582 16.658087930590916 23.78517128765519 32.64902421657096 43.0840893924292 54.65707923996771 66.65898732909896 78.15446467668522 88.09102500354695 95.45360247757603 99.43419758114909 99.57768208852255 95.86742045746776 94.14092177863196 98.91535907502771 99.86424317645648 96.87624477986371 90.29954757249678 80.87510369990261 69.59934049496803 57.55146666791957 45.72657414101269 34.909363615056 25.608031558733074 18.049761116331386 12.224404676195782 7.955087773029203 4.974199860476826 2.9885634710805866 1.7252924995794998 0.9570265417052141 0.5100893172915191 0.2612338624926164 0.12855048304982605 0.06078255500008771 0.027615008943981608 0.012055144553250997 0.005056623913658923 0.002038026767152181 7.892600321051877E-4 2.936914717664754E-4 1.0500828318459511E-4 3.6075867091762834E-5 1.1908882110432066E-5
5.1818917172725865 8.208499862389877 12.493021219858248 18.26835240527347 25.66607769535559 34.64558103300575 44.932896411722155 55.989836656540206 67.03200460356393 77.10515858035663 85.21680237591389 91.46754990066943 96.18146456414276 99.08279602510467 99.99715610158424 98.86887038286898 95.76658992710739 90.87637649783255 84.48322984184051 76.94360732091357 68.65261837183074 60.01007862073546 51.38943154460905 43.112773194812995 35.43403688690259 28.531055217795608 22.505961076913852 17.392412230704824 13.167538752634321 9.766341759878852 7.0964599834780095 5.0516601570495885 5.22537529273189 8.0862111587774 12.083770306738927 17.43771749826791 24.300018621939326 32.70042280938635 42.49422591130927 53.32566370751197 64.62081177610438 75.62029060601401 85.45432880281095 93.25230715714873 98.26862885602915 100.0 98.26862885602915 93.25230715714873 85.45432880281095 75.62029060601401 64.62081177610438 53.32566370751197 42.49422591130927 32.70042280938635 24.300018621939326 17.43771749826791 12.083770306738927 11.794900241804333 17.434325536064556 24.77415322714801 33.843500558760276 44.446188620000505 56.11468924220401 68.10851150110734 79.47105992190895 89.14549714535372 96.13302465525535 99.66176907346951 99.32701100777534 95.16755921400505 93.85360960530352 98.78480238360902 99.90570486319014 97.08484436134547 90.65120614171866 81.33111621111459 70.11337552690034 58.07724643767399 46.22449297723084 35.35080376356293 25.976906241470743 18.341572156771242 12.443618507672841 8.111810850933143 5.081008719094967 3.05803930187077 1.7684679065278435 0.9826804151491428 0.5246726380708935 0.2691693025967491 0.1326855533931638 0.06284673910226773 0.028602424950373857 0.012507887273893877 0.0052556454541742735 0.002121920747312676 8.231770540069248E-4 3.068445051253841E-4 1.0990170818019934E-4 3.782261329405887E-5 1.2507186329361087E-5
5.502322005640725 8.716085146198127 13.265546508012175 19.398004229089185 27.253179303401264 36.78794411714422 47.71139155210344 59.452054797019436 71.17703227626097 81.87307530779819 90.48374180359595 96.07962702426515 99.03138353032013 99.99928901781367 98.92441844332568 95.87218540229354 91.0257521902666 84.66783473415362 77.15341579365945 68.87702665851765 60.23877773407399 51.61315882418184 43.323871156449414 35.62678225497542 28.70175620035293 22.652851113979537 17.51538943774338 13.267810285337077 9.84603184042047 7.1582316162227 5.098386847466266 3.5574790518784725 4.384176764298385 6.875349394062323 10.411931042318614 15.226412314131657 21.502733938467298 29.323754130991865 38.61670818976046 49.108958538497255 60.30814780148299 71.51893681523798 81.90226299154251 90.57337403183587 96.72416378778902 99.74685560565003 99.33292793931791 95.52500137912367 88.70960819164483 79.55254213697911 68.89175623630281 57.611640623043584 46.524640114135266 36.28153012684622 27.3223442863672 19.869187918257392 13.953143724221833 12.396730748900914 18.236041959144657 25.789135649751643 35.06111957205432 45.824481831222826 57.57741134684103 69.54877699713474 80.76248048156639 90.15972748751572 96.7605484265786 99.83132647023584 99.0189123710776 94.41744660469776 93.56011288360097 98.64697267624123 99.93964086496872 97.28655045337037 90.9973662096209 81.78352736432942 70.62587657580757 58.6034065706057 46.72430717941049 35.79512444417926 26.34910574740214 18.636694319187807 12.665807439638238 8.27099727833443 5.189719346778117 3.1288941016119 1.8125869729086013 1.00894581177142 0.5396321637019187 0.2773248647455521 0.13694330039117272 0.064976119143282 0.029622911719202318 0.01297665378227457 0.005462087951449257 0.0022091014349494616 8.58486804658139E-4 3.205624055039507E-4 1.1501448793169615E-4 3.965094202126914E-5 1.3134558126996247E-5
5.613476283413374 8.892161745938635 13.53352832366127 19.789869908361467 27.803730045319412 37.531109885139955 48.67522559599717 60.653065971263345 72.6149037073691 83.5270211411272 92.31163463866358 98.01986733067552 100.0 98.97859025736531 95.97653254396182 91.17407693841231 84.85163643499149 77.36269628674111 69.10118587520033 60.46748858710054 51.83712300193994 43.53538367673262 35.82006671792669 28.87306791585181 22.800375644060086 17.63898536175027 13.368655291740335 9.926231016377859 7.220438271314432 5.145472581416508 3.5922744134835773 2.456949722467633 3.65979746975795 5.816247733560324 8.926033918677293 13.228297761403917 18.931245353346394 26.162798647888845 34.915559549749865 44.99700484532298 55.9987070362201 67.2980042734644 78.10092254691968 87.52657514690272 94.7225757626323 98.9912608629619 99.90103909763988 97.35829232847183 91.62324789628869 83.26609746545898 73.07360462381854 61.927371142534994 50.67976009050524 40.05126605993005 30.56523510120927 22.52521914742947 16.03024285729662 13.02163435639473 19.063447634781443 26.829969863687353 36.30126117428971 47.21783081639602 59.04364217148292 70.97788220396306 82.02679143317772 91.13206276002835 97.33509716474798 99.9425721819021 98.65392483907634 93.61835437122288 93.26049518414705 98.50190088980136 99.96604350237315 97.4813182571583 91.33795443130174 82.23224865086911 71.13675479043071 59.129870735528065 47.225961393015034 36.242294375815256 26.724621133494285 18.935135977231788 12.89099075835726 8.432671133091022 5.300355848724612 3.201149002469472 1.8576664984828746 1.0358350591393064 0.5549763304339479 0.28570596878748505 0.14132700764966594 0.06717257725036739 0.030677492382365626 0.013461972532272567 0.005676211129776136 0.0022996904377036794 8.952435805554017E-4 3.3486830921785325E-4 1.2035603746452592E-4 4.1564514303557794E-5 1.3792358490394055E-5
5.502322005640725 8.716085146198127 13.265546508012175 19.398004229089185 27.253179303401264 36.78794411714422 47.71139155210344 59.452054797019436 71.17703227626097 81.87307530779819 90.48374180359595 96.07894391523232 98.01986733067552 96.07894391523232 91.32134480810379 85.03462796789655 77.57144140816185 69.32508882600497 60.696204707689624 52.061318722673676 43.74730674966173 36.01388768872128 29.04498912305874 22.9485345900917 17.763200841282657 13.470075251812016 10.006941144412766 7.283081952402423 5.192919329553977 3.6273585248892557 2.4822865708677377 1.8225913277601116 3.0396562805398286 4.895414246509568 7.613497517519496 11.434278509342487 16.583000539746962 23.224547238811642 31.409512096458386 41.02087473756686 51.73428326727543 63.0059768123329 74.09942776113797 84.15457905141548 92.29335691678712 97.74463425237232 99.9643627872073 98.72502918776046 94.1540774538792 86.71231615676858 77.11737422649401 66.22980459071364 54.92682633526241 43.989125833035445 34.02012850188618 25.407173924699922 18.323421171457866 13.670023310657662 19.91671642616057 27.896454769085793 37.563242871169436 48.6250355478071 60.51173078007008 72.39390569298429 83.26207502715864 92.0609054304114 97.85568094823822 99.99531077817723 98.23268507958754 92.77162961207229 92.95482126000721 98.3496195553055 99.98490679951549 97.66910445501532 91.67289844844625 82.67719191079676 71.64592104218504 59.656561843494934 47.72939924826717 36.69228123629675 27.103442572838954 19.23690488139852 13.119187409750555 8.596856395966785 5.412942404268787 3.2748253047739873 1.903723481318087 1.063360670711761 0.5707137264009251 0.2943181467405801 0.14584003503955167 0.06943804380417737 0.0317672186789376 0.013964387944688251 0.005898283132227474 0.002393813567292618 9.335036704489184E-4 3.4978624991273297E-4 1.259361564346372E-4 4.356714823346647E-5 1.4482009559282803E-5
5.1818917172725865 8.208499862389877 12.493021219858248 18.26835240527347 25.66607769535559 34.64558103300575 44.932896411722155 55.989836656540206 67.03200460356393 77.10515858035663 85.21437889662113 90.48374180359595 92.31163463866358 90.48374180359595 85.21437889662113 77.7796437687962 69.54872830263996 60.9249195989636 52.28574059807548 43.95963633215049 36.208242543358296 29.21751854726329 23.09732784735792 17.888036694286164 13.572071632138579 10.08816407441155 7.3461646618097465 5.240729065246671 3.6627332035476177 2.507849039821485 1.6822092761464347 1.4861957854360843 2.511830499828745 4.099533375112449 6.461127572272682 9.833587770946576 14.452583048792942 20.512034653171245 28.11265106723014 37.207000113160824 47.552932228984865 58.68940960086332 69.94746382002724 80.50335808204605 89.47172568502387 96.02568718718214 99.52193844846956 99.6047435986072 96.26557517221288 89.84456099133975 80.97339800484397 70.47299536209786 59.228794057587066 48.06985831855012 37.674074022930604 28.51294813988639 20.838739915389947 14.707219605116359 20.795983549054707 28.98833522400007 38.846319176767956 50.04483515541469 61.979981390388026 73.79491036233745 84.46643548519164 92.94471806887974 98.32139940243277 99.98944956011505 97.75592591704239 91.87869100117072 92.64315702338726 98.19016278575164 99.99622648629315 97.8498672263881 92.00212691490253 83.11826936151556 72.15328595015637 60.18340206436865 48.234563366356625 37.14505165917769 27.48555934504391 19.542008146690875 13.3504159875735 8.763576941424047 5.527503261084876 3.3499444744003717 1.9507751175250512 1.0915353469659415 0.586853093310857 0.30316704448720755 0.1504858201077074 0.07177449847738533 0.032893171650454855 0.01448446083698201 0.006128580768157519 0.0024916009731503217 9.732886947188954E-4 3.652860495145929E-4 1.3172030117077435E-4 4.563526367903997E-5 1.5190659675689652E-5
4.688769521998851 7.4273578214333895 11.304153064044986 16.529888822158657 23.22362747297589 31.348618088260526 40.65696597405991 50.66169923655897 60.653065971263345 69.76763260710311 77.10515858035663 81.87307530779819 83.5270211411272 81.87307530779819 77.10515858035663 69.76763260710311 61.15362673956961 52.510383206903285 44.1723683440775 36.40312862082098 29.39065488015095 23.246755283316183 18.013493717903312 13.67464588573947 10.169901649324608 7.409688400407529 5.288903764489004 3.6984002721923197 2.533638722039582 1.7004269953185658 1.1180309396019443 1.2057608518959617 2.0651643052370545 3.4156851647060145 5.455453390750405 8.414216041203684 12.53216950608888 18.024725305469993 25.034610686673048 33.577072007585 43.4885166706301 54.39214178459596 65.69427414341854 76.62115061214617 86.29777791278154 93.85995672943834 98.58046874979219 99.98415967055428 97.92674419557498 92.6192421500232 84.59231754388375 74.6088620879624 63.54475389576246 52.26353492150634 41.509514301416004 31.83657323140865 23.57950981629597 16.864482613935515 21.70134351839802 30.105300506438482 40.149681201454705 51.47590911278993 63.44665628270487 75.1789477092739 85.63800380741552 93.78202758230853 98.73144429424639 99.9249988316238 97.22447420818601 90.94102483084356 92.32556952197 98.02356626338441 100.0 98.01986733067552 92.31163463866358 83.5270211411272 72.6149037073691 60.653065971263345 48.67522559599717 37.531109885139955 27.803730045319412 19.789869908361467 13.53352832366127 8.892161745938635 5.613476283413374 3.404745473459935 1.9841094744370291 1.110899653824231 0.5976022895005945 0.308871540823677 0.15338106793244638 0.0731802418880473 0.033546262790251205 0.014774836023203373 0.006252150377482029 0.002541934651619926 9.929504305851088E-4 3.7266531720786734E-4 1.3438122776315224E-4 4.65571571578309E-5 1.5497531357028978E-5
4.07622039783662 6.457034689316848 9.827358560436156 14.370394977770298 20.189651799465537 27.253179303401264 35.34546819587803 44.04316545059993 52.729242404304856 60.653065971263345 67.03200460356393 71.17703227626097 72.6149037073691 71.17703227626097 67.03200460356393 60.653065971263345 52.729242404304856 44.385498668338556 36.598543223029075 29.564396779678415 23.39681673742451 18.139572688281913 13.7777994518816 10.252155705004531 7.473655167488169 5.3374454058132095 3.7343615587857952 2.559657216880528 1.718817564578548 1.1307335659566347 0.7287411835281753 0.9732956024219354 1.6893409843903018 2.8315202276649454 4.583020620214481 7.163310010989213 10.811986010240524 15.758939786717935 22.18085638647582 30.148063161825693 39.570388645780916 50.15462733529231 61.38771845291024 72.55740972485731 82.81554046391759 91.27917443836766 97.1541506316037 99.8575273313831 99.11286932364295 94.99682341596697 87.92612019812871 78.58805304021195 67.83048805139305 56.53574857911941 45.50416450515923 35.36787242185873 26.545842823752473 19.240391055222197 22.632848125455173 31.246982881744966 41.472456414527706 52.9168786353482 64.90997890418765 76.5440622201826 86.77494257154332 94.57142930069914 99.0851018692694 99.80207186928178 96.6392484526478 89.96018089456794 90.48374180359595 96.07894391523232 98.01986733067552 96.07894391523232 90.48374180359595 81.87307530779819 71.17703227626097 59.452054797019436 47.71139155210344 36.78794411714422 27.253179303401264 19.398004229089185 13.265546508012175 8.716085146198127 5.502322005640725 3.337326996032607 1.9448214745385404 1.0889023668554452 0.5857689713335614 0.30275547453758134 0.1503439192977573 0.0717311760109315 0.03288200228140395 0.01448227466826878 0.006128349505322217 0.0024916009731503217 9.732886947188954E-4 3.652860495145929E-4 1.3172030117077435E-4 4.563526367903997E-5 1.5190659675689652E-5
3.404745473459935 5.393368730035602 8.208499862389877 12.003162851145674 16.863814726859555 22.763768838381278 29.523016692401427 36.78794411714422 44.04316545059993 50.66169923655897 55.989836656540206 59.452054797019436 60.653065971263345 59.452054797019436 55.989836656540206 50.66169923655897 44.04316545059993 36.78794411714422 29.738742869950567 23.547512020969723 18.266274360383257 13.88153375589338 10.3349280700439 7.53806696063727 5.386355970199654 3.7706188964657543 2.5859061303274413 1.737382327504887 1.1435642532897539 0.7374087231307227 0.4658418459625633 0.7816759875056006 1.3749232463998258 2.3353927703571125 3.830638778280504 6.067534618749664 9.28075093473737 13.70830521399239 19.553036264661237 26.93236173007057 35.823207177295075 46.01339557395597 57.07341963818337 68.36177000667477 79.07195848671851 88.32049314999182 95.26431910345703 99.22676732028471 99.8061287675821 96.94275804237215 90.92919048467314 82.36089755493887 72.03915494987473 60.84794861962164 49.63100456817756 39.092188375381745 29.734229745640423 21.84002822902916 23.59050445420078 32.41295628458256 42.813708588371604 54.36630829208256 66.36813716280318 77.88829586497314 87.87545070680208 95.31159090029816 99.38175492197475 99.62088459058332 96.0012561480478 88.93776822545001 85.21437889662113 90.48374180359595 92.31163463866358 90.48374180359595 85.21437889662113 77.10515858035663 67.03200460356393 55.989836656540206 44.932896411722155 34.64558103300575 25.66607769535559 18.26835240527347 12.493021219858248 8.208499862389877 5.1818917172725865 3.1429762018367717 1.831563888873417 1.0254896296404015 0.5516564420760778 0.28512436826796334 0.14158857103468014 0.06755387751938452 0.030967103541862634 0.013638892648201145 0.005771462213521026 0.002346501428356972 9.166087736247624E-4 3.4401344604594253E-4 1.240495079956712E-4 4.2977672813685264E-5 1.4306024524312938E-5
2.7323722447292553 4.32827979019659 6.587475442640296 9.6327638230493 13.53352832366127 18.26835240527347 23.692775868212184 29.523016692401427 35.34546819587803 40.65696597405991 44.932896411722155 47.71139155210344 48.67522559599717 47.71139155210344 44.932896411722155 40.65696597405991 35.34546819587803 29.523016692401427 23.692775868212184 18.39359946779083 13.985850208977869 10.418220565612277 7.602925775604945 5.435637440985981 3.807174123490768 2.6123870749643325 1.756122634726548 1.1565240877733751 0.7461687427975153 0.47163057292812893 0.33838117262139455 0.6246075201813209 1.113366165404842 1.916454983558713 3.1855836840196177 5.113393405249022 7.926093449911886 11.864213753193601 17.149384181723274 23.938001465960358 32.266885032149105 42.00064761096741 52.794019051715615 64.0830620858541 75.11584877517468 85.0255980095114 92.93891628493009 98.1014227139139 99.99603968238304 98.42832337621921 93.55934385164726 85.87841889635051 76.12209031372606 65.15791273778329 53.858395933940486 42.99019928825574 33.13716076943082 24.665556820257557 24.574272945738546 33.60273512465558 44.172437930428515 55.82270783115699 67.81928690347212 79.20969268182886 88.93776822545001 96.0012561480478 99.62088459058333 99.38175492197473 95.31159090029816 87.87545070680208 77.8882958649731 81.87307530779819 83.5270211411272 81.87307530779819 77.10515858035663 69.76763260710311 60.653065971263345 50.66169923655897 40.65696597405991 31.348618088260526 23.22362747297589 16.529888822158657 11.304153064044986 7.4273578214333895 4.688769521998851 2.843882471418451 1.6572675401761259 0.9279013887064737 0.4991593906910219 0.25799119720271807 0.1281146370384212 0.06112527611295737 0.028020194012871213 0.01234098040866794 0.005222234967574471 0.0021232022938522145 8.29381916075739E-4 3.112762382898642E-4 1.122446365234345E-4 3.8887806501929316E-5 1.2944626292938417E-5
2.1067999523041445 3.337326996032607 5.079283386489853 7.4273578214333895 10.435048475476501 14.0858420921045 18.26835240527347 22.763768838381278 27.253179303401264 31.348618088260526 34.64558103300575 36.78794411714422 37.531109885139955 36.78794411714422 34.64558103300575 31.348618088260526 27.253179303401264 22.763768838381278 18.26835240527347 14.0858420921045 10.502035005292 7.668233606176026 5.48529180377544 3.8440290831848376 2.6391016699516463 1.775039843921897 1.169614162356308 0.7550220905344815 0.4774844430732635 0.2958293928162809 0.2654641810857213 0.49657639869450704 0.8970073704754982 1.5647167848265249 2.635756364060767 4.287504403099174 6.7349393178368295 10.216275309033607 14.965157135255055 21.168971956307743 28.91665453849026 38.14398986694045 48.5885549234248 59.76840140369376 70.99685160898895 81.43973145145718 90.21180415755013 96.49841869512427 99.67972190882463 99.43132607683219 95.77881024760966 89.09338038289793 80.02970744137929 69.4203524146172 58.15033105831454 47.037839060991566 36.74280643435656 27.71577842231025 25.584065519769382 34.81577322513831 45.547581408695834 57.28453421883831 69.26155555832057 80.50630343771014 89.96018089456794 96.6392484526478 99.80207186928179 99.08510186926938 94.57142930069914 86.77494257154332 76.54406222018255 71.17703227626097 72.6149037073691 71.17703227626097 67.03200460356393 60.653065971263345 52.729242404304856 44.04316545059993 35.34546819587803 27.253179303401264 20.189651799465537 14.370394977770298 9.827358560436156 6.457034689316848 4.07622039783662 2.4723526470339383 1.4407591843112353 0.8066787139099616 0.43394832707388964 0.2242867719485806 0.11137751478448037 0.053139762179825314 0.024359586422561932 0.010728732951170824 0.004539992976248479 0.0018458233995780567 7.210299990312847E-4 2.706105612412539E-4 9.758079914099331E-5 3.3807434839047335E-5 1.1253517471925882E-5
1.5607557919982848 2.4723526470339383 3.7628256807176226 5.502322005640725 7.730474044329972 10.435048475476501 13.53352832366127 16.863814726859555 20.189651799465537 23.22362747297589 25.66607769535559 27.253179303401264 27.803730045319412 27.253179303401264 25.66607769535559 23.22362747297589 20.189651799465537 16.863814726859555 13.53352832366127 10.435048475476501 7.730474044329972 5.535321046344278 3.8811856238811884 2.666051541000948 1.7941353198171237 1.182835576778394 0.7639696204104118 0.4834040974414658 0.29965883953691286 0.18198114247824845 0.20720684471492531 0.3927926641881332 0.719038975356625 1.2710753256164653 2.169801161096161 3.57683065596682 5.693857759475399 8.752752355222428 12.993090429515384 18.625591508775575 25.78323930381965 34.46630110721097 44.4919733991174 55.46237369807749 66.76441212689289 77.61066392436716 87.12194464680555 94.44163901654082 98.86197065087075 99.93665373558953 97.55513552532487 91.96133397178775 83.71247476353973 73.58764293111079 62.466819796799754 51.20633502226415 40.534776513257675 30.985725219153785 26.619743762263127 36.05146290256097 46.93801327584563 58.75019389034437 70.6930459619656 81.77619034941424 90.94102483084356 97.22447420818601 99.9249988316238 98.73144429424636 93.78202758230853 85.63800380741552 75.17894770927387 63.44665628270483 60.653065971263345 59.452054797019436 55.989836656540206 50.66169923655897 44.04316545059993 36.78794411714422 29.523016692401427 22.763768838381278 16.863814726859555 12.003162851145674 8.208499862389877 5.393368730035602 3.404745473459935 2.065082518171257 1.2034232284723767 0.6737946999085469 0.3624641108965754 0.18734005942224272 0.09303032032049485 0.04438606039028746 0.02034683690106439 0.008961391040299537 0.0037921208930767657 0.0015417613011934367 6.022548797247295E-4 2.260329406981056E-4 8.150633472817838E-5 2.8238343245283883E-5 9.39972791789601E-6
1.110899653824231 1.7597472415623396 2.6782676492638178 3.9163895098987074 5.502322005640725 7.4273578214333895 9.6327638230493 12.003162851145674 14.370394977770298 16.529888822158657 18.26835240527347 19.398004229089185 19.789869908361467 19.398004229089185 18.26835240527347 16.529888822158657 14.370394977770298 12.003162851145674 9.6327638230493 7.4273578214333895 5.502322005640725 3.9163895098987074 2.6932383203490176 1.8134104341840767 1.1961894375844913 0.7730121925800428 0.48939018220456687 0.303533541422071 0.1844338589464299 0.10978857423867214 0.16091654249847745 0.3091285309377151 0.5734654795669376 1.0273188644480022 1.7771866355899373 2.9688660749832314 4.789365354293891 7.460967052176349 11.223855551603526 16.304925102335666 22.873116413591454 30.985725219153785 40.534776513257675 51.20633502226415 62.466819796799754 73.58764293111079 83.71247476353973 91.96133397178775 97.55513552532487 99.93665373558953 98.86197065087075 94.44163901654082 87.12194464680555 77.61066392436716 66.76441212689289 55.46237369807749 44.4919733991174 34.46630110721097 27.68111718859554 37.30913419663694 48.342545796396195 60.21804521026725 72.1118403218861 83.01743184948445 91.87869100117072 97.75592591704239 99.98944956011506 98.32139940243275 92.94471806887974 84.46643548519164 73.79491036233742 61.979981390387984 50.04483515541461 47.71139155210344 44.932896411722155 40.65696597405991 35.34546819587803 29.523016692401427 23.692775868212184 18.26835240527347 13.53352832366127 9.6327638230493 6.587475442640296 4.32827979019659 2.7323722447292553 1.6572675401761259 0.9657697627537771 0.5407329126440966 0.29088426258125877 0.1503439192977573 0.07465858083766795 0.035620647830703414 0.016328719092180814 0.007191684765732906 0.003043248300840364 0.0012372924261788228 4.8332086214372753E-4 1.8139568386896777E-4 6.541036577238509E-5 2.266180127765712E-5 7.543458349844266E-6
0.7597014027577577 1.2034232284723767 1.831563888873417 2.6782676492638178 3.7628256807176226 5.079283386489853 6.587475442640296 8.208499862389877 9.827358560436156 11.304153064044986 12.493021219858248 13.265546508012175 13.53352832366127 13.265546508012175 12.493021219858248 11.304153064044986 9.827358560436156 8.208499862389877 6.587475442640296 5.079283386489853 3.7628256807176226 2.6782676492638178 1.831563888873417 1.2096768581380555 0.7821506733069765 0.4954433486893268 0.30745397273231906 0.18691697486410117 0.1113268461785231 0.06495814227045393 0.12433566335376511 0.24205454388921713 0.45505150642809716 0.8261095940504963 1.4482534378677157 2.451778673516886 4.008184929527343 6.327673051826063 9.6465074596554 14.201230301853135 20.188852225128525 27.71577842231025 36.74280643435656 47.037839060991566 58.15033105831454 69.4203524146172 80.02970744137929 89.09338038289793 95.77881024760966 99.43132607683219 99.67972190882463 96.49841869512427 90.21180415755013 81.43973145145718 70.99685160898895 59.76840140369376 48.5885549234248 38.14398986694045 28.91665453849026 38.588054258197715 49.75993018065915 61.68640113929751 73.5160043330736 84.2281273808153 92.77162961207229 98.23268507958754 99.99531077817721 97.85568094823819 92.0609054304114 83.26207502715864 72.39390569298425 60.51173078007004 48.625035547807016 37.563242871169436 34.64558103300575 31.348618088260526 27.253179303401264 22.763768838381278 18.26835240527347 14.0858420921045 10.435048475476501 7.4273578214333895 5.079283386489853 3.337326996032607 2.1067999523041445 1.2778387649535765 0.744658307092434 0.41693296979041133 0.2242867719485806 0.11592291739045918 0.05756561714872758 0.027465356997214266 0.01259028475016699 0.005545159943217707 0.002346501428356972 9.540162873079269E-4 3.7266531720786734E-4 1.3986542970508976E-4 5.043476625678885E-5 1.747341781230281E-5 5.8163955230905655E-6
0.4991593906910219 0.7907054051593443 1.2034232284723767 1.7597472415623396 2.4723526470339383 3.337326996032607 4.32827979019659 5.393368730035602 6.457034689316848 7.4273578214333895 8.208499862389877 8.716085146198127 8.892161745938635 8.716085146198127 8.208499862389877 7.4273578214333895 6.457034689316848 5.393368730035602 4.32827979019659 3.337326996032607 2.4723526470339383 1.7597472415623396 1.2034232284723767 0.7907054051593443 0.5015642534040099 0.3114206118938163 0.18943082841953235 0.112885065983423 0.06590294944821419 0.046786688668104516 0.09558487286248923 0.1885757385849039 0.3592628085263249 0.6609498322458509 1.1742336599758822 2.014514264988715 3.3374591700160763 5.339386613814009 8.24891005503267 12.306415121845234 17.729494202983513 24.665556820257557 33.13716076943082 42.99019928825574 53.858395933940486 65.15791273778329 76.12209031372606 85.87841889635051 93.55934385164726 98.42832337621921 99.99603968238304 98.1014227139139 92.93891628493009 85.0255980095114 75.11584877517468 64.0830620858541 52.794019051715615 42.00064761096741 32.266885032149105 39.88742690303509 51.18885772844064 63.15353210303368 74.90359142533305 85.40640220342144 93.61835437122288 98.65392483907634 99.9425721819021 97.33509716474794 91.13206276002835 82.02679143317772 70.97788220396303 59.04364217148288 47.21783081639593 36.30126117428971 26.829969863687353 23.22362747297589 20.189651799465537 16.863814726859555 13.53352832366127 10.435048475476501 7.730474044329972 5.502322005640725 3.7628256807176226 2.4723526470339383 1.5607557919982848 0.9466462401710334 0.5516564420760778 0.308871540823677 0.1661557273173933 0.08587780939743375 0.042645658068565434 0.02034683690106439 0.009327112346494885 0.004107955522530075 0.00173833101298252 7.067526484648328E-4 2.760772572037196E-4 1.0361485876900842E-4 3.736299379885256E-5 1.2944626292938417E-5 4.308891782197059E-6
0.3151111598444445 0.4991593906910219 0.7597014027577577 1.110899653824231 1.5607557919982848 2.1067999523041445 2.7323722447292553 3.404745473459935 4.07622039783662 4.688769521998851 5.1818917172725865 5.502322005640725 5.613476283413374 5.502322005640725 5.1818917172725865 4.688769521998851 4.07622039783662 3.404745473459935 2.7323722447292553 2.1067999523041445 1.5607557919982848 1.110899653824231 0.7597014027577577 0.4991593906910219 0.3151111598444445 0.19197576103169217 0.11446346823505169 0.06686054797213782 0.03826092718983669 0.03531303635634285 0.0731107174769497 0.14616952074260126 0.28220349813014056 0.5261356811013829 0.9472462853075418 1.646864465859562 2.7649201899030165 4.482673764976665 7.01813082726876 10.61049338378083 15.49100131324581 21.84002822902916 29.734229745640423 39.092188375381745 49.63100456817756 60.84794861962164 72.03915494987473 82.36089755493887 90.92919048467314 96.94275804237215 99.8061287675821 99.22676732028471 95.26431910345703 88.32049314999182 79.07195848671851 68.36177000667477 57.07341963818337 46.01339557395597 35.823207177295075 41.20639233903153 52.627961184691195 64.61766905771627 76.27264713081745 86.55041219653252 94.41744660469776 99.0189123710776 99.83132647023582 96.76054842657857 90.15972748751572 80.76248048156639 69.5487769971347 57.57741134684099 45.824481831222755 35.06111957205432 25.789135649751643 18.236041959144632 14.370394977770298 12.003162851145674 9.6327638230493 7.4273578214333895 5.502322005640725 3.9163895098987074 2.6782676492638178 1.7597472415623396 1.110899653824231 0.6737946999085469 0.3926526838305625 0.2198455963042534 0.11826471566155732 0.06112527611295737 0.030353913807886636 0.01448227466826878 0.006638761765307788 0.0029239208281656767 0.0012372924261788228 5.030455607111461E-4 1.965035984673079E-4 7.374998146901935E-5 2.659387015558673E-5 9.213600834566143E-6 3.066941294563569E-6
0.19112457966326402 0.30275547453758134 0.4607821929992749 0.6737946999085469 0.9466462401710334 1.2778387649535765 1.6572675401761259 2.065082518171257 2.4723526470339383 2.843882471418451 3.1429762018367717 3.337326996032607 3.404745473459935 3.337326996032607 3.1429762018367717 2.843882471418451 2.4723526470339383 2.065082518171257 1.6572675401761259 1.2778387649535765 0.9466462401710334 0.6737946999085469 0.4607821929992749 0.30275547453758134 0.19112457966326402 0.11592291739045918 0.06783109627486997 0.038837303150790294 0.021784711945753557 0.02651833435077884 0.05563797985812906 0.11272656064598452 0.22055197596291648 0.4167018631099829 0.7602732743914825 1.3395033338279032 2.2790175327569453 3.744392153181914 5.940797914031886 9.102025022041394 13.466696221178928 19.240391055222197 26.545842823752473 35.36787242185873 45.50416450515923 56.53574857911941 67.83048805139305 78.58805304021195 87.92612019812871 94.99682341596697 99.11286932364295 99.8575273313831 97.1541506316037 91.27917443836766 82.81554046391759 72.55740972485731 61.38771845291024 50.15462733529231 39.570388645780916 42.54402707349278 54.07581630848256 66.07700674678024 77.62121355863721 87.65834863894484 95.16755921400505 99.32701100777534 99.6617690734695 96.13302465525531 89.14549714535372 79.47105992190895 68.10851150110729 56.114689242203966 44.44618862000041 33.843500558760276 24.77415322714801 17.434325536064534 11.794900241804323 8.208499862389877 6.587475442640296 5.079283386489853 3.7628256807176226 2.6782676492638178 1.831563888873417 1.2034232284723767 0.7597014027577577 0.4607821929992749 0.26852001769538214 0.1503439192977573 0.08087667511241124 0.04180121746110127 0.020757870271771763 0.009903868763242701 0.004539992976248479 0.0019995566179747334 8.461365421744255E-4 3.4401344604594253E-4 1.3438122776315224E-4 5.043476625678885E-5 1.818652152100997E-5 6.300826050646546E-6 2.0973627956717965E-6
0.11137751478448037 0.17643022368343347 0.26852001769538214 0.3926526838305625 0.5516564420760778 0.744658307092434 0.9657697627537771 1.2034232284723767 1.4407591843112353 1.6572675401761259 1.831563888873417 1.9448214745385404 1.9841094744370291 1.9448214745385404 1.831563888873417 1.6572675401761259 1.4407591843112353 1.2034232284723767 0.9657697627537771 0.744658307092434 0.5516564420760778 0.3926526838305625 0.26852001769538214 0.17643022368343347 0.11137751478448037 0.06755387751938452 0.03936690406550784 0.022124521733743376 0.0121644883317931 0.01981325597832956 0.04212695685850072 0.08649562043111701 0.17149755832397603 0.32836099043443256 0.6071205950219628 1.0839972157338449 1.8690080017239195 3.1118879252443885 5.003415008715178 7.768530930556262 11.647723812807618 16.864482613935515 23.57950981629597 31.83657323140865 41.509514301416004 52.26353492150634 63.54475389576246 74.6088620879624 84.59231754388375 92.6192421500232 97.92674419557498 99.98415967055428 98.58046874979219 93.85995672943834 86.29777791278154 76.62115061214617 65.69427414341854 54.39214178459596 43.4885166706301 43.8993440070799 55.530943655842115 67.52970714118167 78.94733396268929 88.72844295040657 95.86742045746776 99.57768208852255 99.43419758114908 95.453602477576 88.09102500354695 78.15446467668522 66.65898732909892 54.657079239967665 43.08408939242912 32.64902421657096 23.78517128765519 16.6580879305909 11.215710911109566 7.259575941998227 4.517295369064989 3.337326996032607 2.4723526470339383 1.7597472415623396 1.2034232284723767 0.7907054051593443 0.4991593906910219 0.30275547453758134 0.17643022368343347 0.09878299405312299 0.053139762179825314 0.027465356997214266 0.013638892648201145 0.006507305474754297 0.002982987947026769 0.0013138023168804537 5.55951324165014E-4 2.260329406981056E-4 8.8294758344622E-5 3.313800277713885E-5 1.1949396128877693E-5 4.1399377187851705E-6 1.378065554894573E-6
0.06236008859994447 0.09878299405312299 0.1503439192977573 0.2198455963042534 0.308871540823677 0.41693296979041133 0.5407329126440966 0.6737946999085469 0.8066787139099616 0.9279013887064737 1.0254896296404015 1.0889023668554452 1.110899653824231 1.0889023668554452 1.0254896296404015 0.9279013887064737 0.8066787139099616 0.6737946999085469 0.5407329126440966 0.41693296979041133 0.308871540823677 0.2198455963042534 0.1503439192977573 0.09878299405312299 0.06236008859994447 0.03782330567826259 0.022041465283014688 0.01234098040866794 0.006661646198660522 0.014728682042492672 0.03173563926666104 0.06603290561741197 0.1326793567531935 0.25744004321510966 0.4823681615774107 0.8727924133752822 1.5250113751653993 2.5731493637125147 4.19263159254247 6.5968741853374455 10.02350226694831 14.707219605116359 20.838739915389947 28.51294813988639 37.674074022930604 48.06985831855012 59.228794057587066 70.47299536209786 80.97339800484397 89.84456099133975 96.26557517221288 99.6047435986072 99.52193844846956 96.02568718718214 89.47172568502387 80.50335808204605 69.94746382002724 58.68940960086332 47.552932228984865 45.27129272017369 56.9918105761017 68.97390305552611 80.24905738820858 89.75897137673884 96.51583754110948 99.77048652911901 99.14901087174897 94.7234421483769 86.99801558990843 76.81464206831657 65.20208227881965 53.20613466688895 41.739259771944305 31.478248954709553 22.822287835613185 15.907084225779611 10.658713097817154 6.865967664536941 4.251885146999042 2.5313027170214655 1.5607557919982848 1.110899653824231 0.7597014027577577 0.4991593906910219 0.3151111598444445 0.19112457966326402 0.11137751478448037 0.06236008859994447 0.033546262790251205 0.017338430690350532 0.008610009871634024 0.004107955522530075 0.0018831115057022748 8.29381916075739E-4 3.509629786432931E-4 1.426908988085513E-4 5.5739036926945906E-5 2.0919479197970832E-5 7.543458349844266E-6 2.613474975286327E-6 8.699502472413703E-7
0.033546262790251205 0.053139762179825314 0.08087667511241124 0.11826471566155732 0.1661557273173933 0.2242867719485806 0.29088426258125877 0.3624641108965754 0.43394832707388964 0.4991593906910219 0.5516564420760778 0.5857689713335614 0.5976022895005945 0.5857689713335614 0.5516564420760778 0.4991593906910219 0.43394832707388964 0.3624641108965754 0.29088426258125877 0.2242867719485806 0.1661557273173933 0.11826471566155732 0.08087667511241124 0.053139762179825314 0.033546262790251205 0.02034683690106439 0.011857083645433888 0.006638761765307788 0.004817676710574117 0.01089357308079811 0.023786625876577906 0.05015625772346202 0.10212855835058025 0.20081635054206293 0.3813122275008725 0.6991851349134709 1.2380364563799033 2.116920133539202 3.495467802123104 5.573601718803936 8.582154914255497 12.761054413128846 18.323421171457866 25.407173924699922 34.02012850188618 43.989125833035445 54.92682633526241 66.22980459071364 77.11737422649401 86.71231615676858 94.1540774538792 98.72502918776046 99.9643627872073 97.74463425237232 92.29335691678712 84.15457905141548 74.09942776113797 63.0059768123329 51.73428326727543 46.65875995689349 58.456833420520304 70.4077019311152 81.52444338195744 90.74825960139997 97.11170000485976 99.90508610341364 98.80670794767198 93.94378425000917 85.86822011274297 75.4535470878646 63.73964648534513 51.76335650110537 40.41271223131927 30.331672400254245 21.885551985902207 15.181037118782752 10.123441306386505 6.4898952322133425 3.9997237076086294 2.3697639478295485 1.3497799525644463 0.7391007595560589 0.4607821929992749 0.30275547453758134 0.19112457966326402 0.11592291739045918 0.06755387751938452 0.03782330567826259 0.02034683690106439 0.010516289805000117 0.005222234967574471 0.0024916009731503217 0.0011421648638660512 5.030455607111461E-4 2.1286980697122744E-4 8.654640498933893E-5 3.3807434839047335E-5 1.2688305518789939E-5 4.5753387694458E-6 1.5851527009028743E-6 5.276514973764787E-7
0.017338430690350532 0.027465356997214266 0.04180121746110127 0.06112527611295737 0.08587780939743375 0.11592291739045918 0.1503439192977573 0.18734005942224272 0.2242867719485806 0.25799119720271807 0.28512436826796334 0.30275547453758134 0.308871540823677 0.30275547453758134 0.28512436826796334 0.25799119720271807 0.2242867719485806 0.18734005942224272 0.1503439192977573 0.11592291739045918 0.08587780939743375 0.06112527611295737 0.04180121746110127 0.027465356997214266 0.017338430690350532 0.010516289805000117 0.006128349505322217 0.003431252877771799 0.003498351304315747 0.008016323661137317 0.017738498714500794 0.037904281681407796 0.07821489624175812 0.15585490292437978 0.29990330871916737 0.5572779225832474 0.9999820673370032 1.7327758175048669 2.899494822330927 4.685242666094494 7.3109133101771455 11.016432346208525 16.03024285729662 22.52521914742947 30.56523510120927 40.05126605993005 50.67976009050524 61.927371142534994 73.07360462381854 83.26609746545898 91.62324789628869 97.35829232847183 99.90103909763988 98.9912608629619 94.7225757626323 87.52657514690272 78.10092254691968 67.2980042734644 55.9987070362201 48.060570311337074 59.924379961024165 71.82918977613801 82.77156675044392 91.69468726628835 97.65398289062894 99.98124443199572 98.40788648033815 93.11594618166255 84.70343180307674 74.07313772118354 62.2734987371045 50.33019129067716 39.10539572782987 29.20973243211019 20.97496582997016 14.479639015774659 9.609416054702468 6.130826829209923 3.7603120884732637 2.2172339612480867 1.2568456396989411 0.6849125958682033 0.3588154651483728 0.1807132276114966 0.11137751478448037 0.06755387751938452 0.03936690406550784 0.022041465283014688 0.011857083645433888 0.006128349505322217 0.003043248300840364 0.0014519761127166808 6.655945783409189E-4 2.9314892136891326E-4 1.240495079956712E-4 5.043476625678885E-5 1.9701223569702454E-5 7.394087866662117E-6 2.6662706719135024E-6 9.237449661970604E-7 3.0748798795866094E-7
0.008610009871634024 0.013638892648201145 0.020757870271771763 0.030353913807886636 0.042645658068565434 0.05756561714872758 0.07465858083766795 0.09303032032049485 0.11137751478448037 0.1281146370384212 0.14158857103468014 0.1503439192977573 0.15338106793244638 0.1503439192977573 0.14158857103468014 0.1281146370384212 0.11137751478448037 0.09303032032049485 0.07465858083766795 0.05756561714872758 0.042645658068565434 0.030353913807886636 0.020757870271771763 0.013638892648201145 0.008610009871634024 0.005222234967574471 0.003043248300840364 0.0017039097526934611 0.002527479332112197 0.005869195338841523 0.013161315733039664 0.028500327087984396 0.05959779246915249 0.12034839301037158 0.2346822321942273 0.4419263709995154 0.8036175603235985 1.4111679724317563 2.392972992025786 3.918561575490495 6.196484202994042 9.462236767186868 13.953143724221833 19.869187918257392 27.3223442863672 36.28153012684622 46.524640114135266 57.611640623043584 68.89175623630281 79.55254213697911 88.70960819164483 95.52500137912367 99.33292793931791 99.74685560565003 96.72416378778902 90.57337403183587 81.90226299154251 71.51893681523798 60.30814780148299 49.47548711991014 61.39277201597776 73.23643525237038 83.9885223500993 92.59669238474821 98.1417496796046 99.99882767392924 97.95324107130044 92.24131845243583 83.50548119370048 72.67537034782836 60.80542296422493 48.90802928525591 37.818195533016386 28.112808349457318 20.0904863607296 13.80255411857041 9.116145671613948 5.788230851266342 3.5331593134052395 2.0733059169579184 1.1696241939766585 0.634325380828644 0.3307201255372898 0.16576466068715612 0.07987411576977281 0.03782330567826259 0.022041465283014688 0.01234098040866794 0.006638761765307788 0.003431252877771799 0.0017039097526934611 8.129590538020515E-4 3.7266531720786734E-4 1.64133602234864E-4 6.94551169000181E-5 2.8238343245283883E-5 1.1030682896016183E-5 4.1399377187851705E-6 1.4928405940256096E-6 5.172032976967457E-7 1.721620221965372E-7
0.004107955522530075 0.006507305474754297 0.009903868763242701 0.01448227466826878 0.02034683690106439 0.027465356997214266 0.035620647830703414 0.04438606039028746 0.053139762179825314 0.06112527611295737 0.06755387751938452 0.0717311760109315 0.0731802418880473 0.0717311760109315 0.06755387751938452 0.06112527611295737 0.053139762179825314 0.04438606039028746 0.035620647830703414 0.027465356997214266 0.02034683690106439 0.01448227466826878 0.009903868763242701 0.006507305474754297 0.004107955522530075 0.0024916009731503217 0.0014519761127166808 8.129590538020515E-4 0.0018168130246906129 0.004275435040239414 0.00971583616046 0.02132111171561834 0.045182400574228676 0.09246099233678387 0.18271642593905846 0.3486795089191308 0.6425472252837566 1.1434402406919515 1.964950817392244 3.260766417682014 5.22537529273189 8.0862111587774 12.083770306738927 17.43771749826791 24.300018621939326 32.70042280938635 42.49422591130927 53.32566370751197 64.62081177610438 75.62029060601401 85.45432880281095 93.25230715714873 98.26862885602915 100.0 98.26862885602915 93.25230715714873 85.45432880281095 75.62029060601401 64.62081177610438 53.32566370751197 62.86028827895894 74.62749389691434 85.17342989295248 93.45277562999456 98.57415498698991 99.95780491869739 97.4435612364682 91.32136079274387 82.27623135233166 71.26219522745771 59.337164907571946 47.49820278158012 36.55193325144819 27.04122216574528 19.232027447283045 13.149420496150594 8.643128038518618 5.4615771050773425 3.3177830303917015 1.9375846415079798 1.0878178346056553 0.5871302488324989 0.3046460323253796 0.15196353459207262 0.07287289722482151 0.03359506421511952 0.01488907455133636 0.006638761765307788 0.0035712849641635165 0.0018458233995780567 9.166087736247624E-4 4.373268009850429E-4 2.0047323447642732E-4 8.8294758344622E-5 3.736299379885256E-5 1.5190659675689652E-5 5.933894506782637E-6 2.227056467808874E-6 8.030652937716083E-7 2.7822663710158763E-7 9.261360220567798E-8
0.0018831115057022748 0.002982987947026769 0.004539992976248479 0.006638761765307788 0.009327112346494885 0.01259028475016699 0.016328719092180814 0.02034683690106439 0.024359586422561932 0.028020194012871213 0.030967103541862634 0.03288200228140395 0.033546262790251205 0.03288200228140395 0.030967103541862634 0.028020194012871213 0.024359586422561932 0.02034683690106439 0.016328719092180814 0.01259028475016699 0.009327112346494885 0.006638761765307788 0.004539992976248479 0.002982987947026769 0.0018831115057022748 0.0011421648638660512 6.655945783409189E-4 5.261527843166932E-4 0.0012993653591794952 0.003098706824002651 0.007136076308902153 0.01586968385603411 0.034080570613275976 0.07067653226491828 0.14153811281433032 0.27371674157922 0.5111626521438501 0.9218211345887741 1.6053288102990175 2.699672804174006 4.384176764298385 6.875349394062323 10.411931042318614 15.226412314131657 21.502733938467298 29.323754130991865 38.61670818976046 49.108958538497255 60.30814780148299 71.51893681523798 81.90226299154251 90.57337403183587 96.72416378778902 99.74685560565003 99.33292793931791 95.52500137912367 88.70960819164483 79.55254213697911 68.89175623630281 57.611640623043584 64.3251673455663 76.00041246671569 86.32443875101895 94.26150448250735 98.95044700333186 99.85824827675022 96.87972912162672 90.35759809926903 81.01757308615825 69.83555208785023 57.87042897590252 46.101984682613065 35.30736702231428 25.995240019129675 18.399461850608283 12.519852134677883 8.189852271869555 5.150337936997949 3.1137100866895606 1.8096867668756975 1.0111403405637105 0.5431280763469258 0.2804631836595894 0.1392298178848022 0.06644639753223057 0.030485506487133534 0.01344615703676122 0.005701455419706472 0.002324106772846989 9.540162873079269E-4 4.7375046785475824E-4 2.260329406981056E-4 1.0361485876900842E-4 4.563526367903997E-5 1.9311113205542063E-5 7.851312725189438E-6 3.066941294563569E-6 1.1510571073753824E-6 4.1506536876982277E-7 1.4380180867709325E-7 4.7867463892088204E-8
8.29381916075739E-4 0.0013138023168804537 0.0019995566179747334 0.0029239208281656767 0.004107955522530075 0.005545159943217707 0.007191684765732906 0.008961391040299537 0.010728732951170824 0.01234098040866794 0.013638892648201145 0.01448227466826878 0.014774836023203373 0.01448227466826878 0.013638892648201145 0.01234098040866794 0.010728732951170824 0.008961391040299537 0.007191684765732906 0.005545159943217707 0.004107955522530075 0.0029239208281656767 0.0019995566179747334 0.0013138023168804537 8.29381916075739E-4 5.030455607111461E-4 2.9314892136891326E-4 3.6944706783143265E-4 9.245933426496755E-4 0.0022344934853018397 0.005214794710054713 0.011752361249926919 0.02557660177097772 0.053751469680376196 0.10908565352128244 0.21378376685491973 0.40458670275466946 0.7393980106889779 1.304892524969004 2.223827014089632 3.65979746975795 5.816247733560324 8.926033918677293 13.228297761403917 18.931245353346394 26.162798647888845 34.915559549749865 44.99700484532298 55.9987070362201 67.2980042734644 78.10092254691968 87.52657514690272 94.7225757626323 98.9912608629619 99.90103909763988 97.35829232847183 91.62324789628869 83.26609746545898 73.07360462381854 61.927371142534994 65.78561093234163 77.35323339284518 87.43973274237504 95.02151722035902 99.2699696725717 99.70033266828442 96.26271695850448 89.3516162292054 79.7314201349042 68.39736582797762 56.406875297613404 44.72058726928061 34.085191897126634 24.975073690114368 17.592623271543108 11.913440959975542 7.755800343874912 4.853989291149905 2.920477042908873 1.6892408265554886 0.9393168892924255 0.5021292063087568 0.2580486694033339 0.12748836598648025 0.060551133190747786 0.027647558468963475 0.01213595855775308 0.005121228737988199 0.0020775766358121467 8.102568680110188E-4 3.0378839462839673E-4 1.122446365234345E-4 5.145361611911217E-5 2.266180127765712E-5 9.589615017724412E-6 3.898846514799559E-6 1.5229979744712643E-6 5.715980433472658E-7 2.06115362243856E-7 7.140986484766855E-8 2.3770279098576798E-8
3.509629786432931E-4 5.55951324165014E-4 8.461365421744255E-4 0.0012372924261788228 0.00173833101298252 0.002346501428356972 0.003043248300840364 0.0037921208930767657 0.004539992976248479 0.005222234967574471 0.005771462213521026 0.006128349505322217 0.006252150377482029 0.006128349505322217 0.005771462213521026 0.005222234967574471 0.004539992976248479 0.0037921208930767657 0.003043248300840364 0.002346501428356972 0.00173833101298252 0.0012372924261788228 8.461365421744255E-4 5.55951324165014E-4 3.509629786432931E-4 2.1286980697122744E-4 1.240495079956712E-4 2.5810178207167636E-4 6.545889468833468E-4 0.001603157256071164 0.0037915202086343147 0.008659252784158716 0.019097532311148427 0.04067278226550105 0.08364891321240953 0.1661294077027934 0.31861228941792036 0.5900765047985285 1.0553193824719929 1.8225913277601116 3.0396562805398286 4.895414246509568 7.613497517519496 11.434278509342487 16.583000539746962 23.224547238811642 31.409512096458386 41.02087473756686 51.73428326727543 63.0059768123329 74.09942776113797 84.15457905141548 92.29335691678712 97.74463425237232 99.9643627872073 98.72502918776046 94.1540774538792 86.71231615676858 77.11737422649401 66.22980459071364 67.23978728094988 78.68399933082382 88.51753488171916 95.73152673693419 99.53216459798621 99.48433531112116 95.59358427165617 88.30505766000695 78.41970436935614 66.94954234885331 54.94811697262412 43.3551611829366 32.886040386335814 23.980882217082648 16.811308422646132 11.32975882683127 7.340448639049519 4.572011697299363 2.7376306280516363 1.5758873116283052 0.8720838745118624 0.46395316641619605 0.23728638476864433 0.11666868039162212 0.05514657456970836 0.02505910677890862 0.010947007649776306 0.004597355058229391 0.0018561089295237342 7.204132033258309E-4 2.688082892560901E-4 9.642428779140835E-5 3.325163557589775E-5 1.1023572790384706E-5 4.5753387694458E-6 1.8601939266915526E-6 7.266435269305904E-7 2.727173805655754E-7 9.834050752920302E-8 3.407064022429895E-8 1.1341130933749797E-8
1.426908988085513E-4 2.260329406981056E-4 3.4401344604594253E-4 5.030455607111461E-4 7.067526484648328E-4 9.540162873079269E-4 0.0012372924261788228 0.0015417613011934367 0.0018458233995780567 0.0021232022938522145 0.002346501428356972 0.0024916009731503217 0.002541934651619926 0.0024916009731503217 0.002346501428356972 0.0021232022938522145 0.0018458233995780567 0.0015417613011934367 0.0012372924261788228 9.540162873079269E-4 7.067526484648328E-4 5.030455607111461E-4 3.4401344604594253E-4 2.260329406981056E-4 1.426908988085513E-4 8.654640498933893E-5 6.74064122000924E-5 1.7940238413010652E-4 4.610892545718731E-4 0.0011443834942499382 0.0027427609770975963 0.006347959265637712 0.014187637822060372 0.030620751729866558 0.06381920589213289 0.12844486195377264 0.24963867536756018 0.4685293433636467 0.8491638824360689 1.4861957854360843 2.511830499828745 4.099533375112449 6.461127572272682 9.833587770946576 14.452583048792942 20.512034653171245 28.11265106723014 37.207000113160824 47.552932228984865 58.68940960086332 69.94746382002724 80.50335808204605 89.47172568502387 96.02568718718214 99.52193844846956 99.6047435986072 96.26557517221288 89.84456099133975 80.97339800484397 70.47299536209786 68.68583473982925 79.99075779261855 89.55611207813034 96.39032417107161 99.73657266826909 99.21063490978064 94.8734748473911 87.21961703123307 77.08437101201466 65.49396452410605 53.49571752898788 42.00679461588717 31.710483167221366 23.0127736003643 16.055279115777193 10.768359469891294 6.943269444655263 4.303891189134456 2.5647281375870428 1.4692786892625775 0.8091887052445204 0.4284283827246025 0.21806674762221873 0.10670467508637929 0.05019497459281616 0.022699684411834932 0.009868750958576124 0.004124652347955657 0.0016572777460452865 6.401563202639191E-4 2.3771663073615556E-4 8.48625122377986E-5 2.9124266207864174E-5 9.608971147276117E-6 3.0477656936566414E-6 9.293280650012198E-7 3.330977608210126E-7 1.250152866386744E-7 4.507987980619289E-8 1.5618186287836282E-8 5.198842595030524E-9
5.5739036926945906E-5 8.8294758344622E-5 1.3438122776315224E-4 1.965035984673079E-4 2.760772572037196E-4 3.7266531720786734E-4 4.8332086214372753E-4 6.022548797247295E-4 7.210299990312847E-4 8.29381916075739E-4 9.166087736247624E-4 9.732886947188954E-4 9.929504305851088E-4 9.732886947188954E-4 9.166087736247624E-4 8.29381916075739E-4 7.210299990312847E-4 6.022548797247295E-4 4.8332086214372753E-4 3.7266531720786734E-4 2.760772572037196E-4 1.965035984673079E-4 1.3438122776315224E-4 8.8294758344622E-5 5.5739036926945906E-5 3.3807434839047335E-5 4.5999988201133686E-5 1.2406916095950775E-4 3.2314672806390985E-4 8.127658983630984E-4 0.0019740628547213544 0.004630056306830436 0.010486760783035655 0.022936452224101695 0.048444102789861124 0.09880647002894306 0.19460753139126136 0.3701380188569102 0.6798256417220042 1.2057608518959617 2.0651643052370545 3.4156851647060145 5.455453390750405 8.414216041203684 12.53216950608888 18.024725305469993 25.034610686673048 33.577072007585 43.4885166706301 54.39214178459596 65.69427414341854 76.62115061214617 86.29777791278154 93.85995672943834 98.58046874979219 99.98415967055428 97.92674419557498 92.6192421500232 84.59231754388375 74.6088620879624 70.12186551460769 81.27156584533695 90.55377976272419 96.99678233530607 99.88283539712516 98.87971054907388 94.10361347688217 86.0970365853854 75.72737389618328 64.03248832141777 52.05118858788037 40.676512706543505 30.55902994503062 22.07080658549391 15.324264357532726 10.228780411314824 6.563732373434622 4.049120153812699 2.4013377767419675 1.3690793860834463 0.7503895880640196 0.39539188986891916 0.20028642012519618 0.09753445035247824 0.04566120488105171 0.020550362314290242 0.008891486811357908 0.0036983846995836257 0.0014788787493358459 5.685070342744953E-4 2.1009799435371795E-4 7.464328772058162E-5 2.5494259555755066E-5 8.370990241461911E-6 2.642372603366498E-6 8.018517283765408E-7 2.3392512544251153E-7 6.560583419260063E-8 1.9854606047973185E-8 6.87874362713457E-9 2.289734845645556E-9
2.0919479197970832E-5 3.313800277713885E-5 5.043476625678885E-5 7.374998146901935E-5 1.0361485876900842E-4 1.3986542970508976E-4 1.8139568386896777E-4 2.260329406981056E-4 2.706105612412539E-4 3.112762382898642E-4 3.4401344604594253E-4 3.652860495145929E-4 3.7266531720786734E-4 3.652860495145929E-4 3.4401344604594253E-4 3.112762382898642E-4 2.706105612412539E-4 2.260329406981056E-4 1.8139568386896777E-4 1.3986542970508976E-4 1.0361485876900842E-4 7.374998146901935E-5 5.043476625678885E-5 3.313800277713885E-5 2.0919479197970832E-5 1.2688305518789939E-5 3.123292488471162E-5 8.53685506544925E-5 2.2532685367496847E-4 5.74325090317943E-4 0.001413619148358288 0.003359981157123157 0.007712071674123269 0.017093660148063995 0.03658717401341106 0.07562274881243986 0.1509405213707709 0.29093034690666614 0.5415044084254581 0.9732956024219354 1.6893409843903018 2.8315202276649454 4.583020620214481 7.163310010989213 10.811986010240524 15.758939786717935 22.18085638647582 30.148063161825693 39.570388645780916 50.15462733529231 61.38771845291024 72.55740972485731 82.81554046391759 91.27917443836766 97.1541506316037 99.8575273313831 99.11286932364295 94.99682341596697 87.92612019812871 78.58805304021195 71.5459695776891 82.52449486111172 91.50890642897768 97.54985892860779 99.9706959709057 98.4921402967359 93.28530248643162 84.93910152484962 74.35067077938928 62.56693908512063 50.61598773967956 39.365277135050434 29.43213045900348 21.154992516366733 14.617962444987242 9.710544820767526 6.201305717396801 3.8071981138712707 2.247038951267356 1.2749657388235265 0.6954552945065042 0.364689039148423 0.18384803529654065 0.08910007409100776 0.04151259923894053 0.018593646846986153 0.00800630294181896 0.0033142269865037675 0.001318910328557871 5.045812158052874E-4 1.855793623036844E-4 6.561619865856176E-5 2.230361424862826E-5 7.288232409289277E-6 2.289559691731724E-6 6.914559494245978E-7 2.007519878824257E-7 5.6032239499993796E-8 1.5034842973013356E-8 3.878310732516915E-9 9.689289652388798E-10
7.543458349844266E-6 1.1949396128877693E-5 1.818652152100997E-5 2.659387015558673E-5 3.736299379885256E-5 5.043476625678885E-5 6.541036577238509E-5 8.150633472817838E-5 9.758079914099331E-5 1.122446365234345E-4 1.240495079956712E-4 1.3172030117077435E-4 1.3438122776315224E-4 1.3172030117077435E-4 1.240495079956712E-4 1.122446365234345E-4 9.758079914099331E-5 8.150633472817838E-5 6.541036577238509E-5 5.043476625678885E-5 3.736299379885256E-5 2.659387015558673E-5 1.818652152100997E-5 1.1949396128877693E-5 7.543458349844266E-6 7.355825800201378E-6 2.1099201568232123E-5 5.8442717155199145E-5 1.563236079713853E-4 4.037834679086026E-4 0.001007168860883406 0.0024259723077111883 0.005642858771685699 0.012674835033412444 0.027492563886518284 0.05758613924370904 0.11647976234956665 0.22751643889809878 0.42914581320500567 0.7816759875056006 1.3749232463998258 2.3353927703571125 3.830638778280504 6.067534618749664 9.28075093473737 13.70830521399239 19.553036264661237 26.93236173007057 35.823207177295075 46.01339557395597 57.07341963818337 68.36177000667477 79.07195848671851 88.32049314999182 95.26431910345703 99.22676732028471 99.8061287675821 96.94275804237215 90.92919048467314 82.36089755493887 72.6149037073691 83.5270211411272 92.31163463866358 98.01986733067552 100.0 98.04859952080567 92.41991806864593 83.74763530219147 72.95621872654246 61.099107989373934 49.1915166329245 38.073985914556815 28.330175624632716 20.265297249090015 13.936043054527945 9.21316332374067 5.855457731757606 3.5776324427987283 2.1014225080074422 1.186625914635504 0.6441649155021729 0.3361732056236427 0.16865992902295254 0.08134737075930665 0.037718804350041886 0.016813382923633432 0.007205018167920238 0.002968232021540663 0.0011755562134016962 4.475811071082612E-4 1.6382602002983936E-4 5.764701242485681E-5 1.9500848953389226E-5 6.341807009588619E-6 1.9826922751482144E-6 5.959096206630185E-7 1.721822065006573E-7 4.782763767978213E-8 1.277180801887674E-8 3.2787524078926998E-9 8.091846819979605E-10
2.613474975286327E-6 4.1399377187851705E-6 6.300826050646546E-6 9.213600834566143E-6 1.2944626292938417E-5 1.747341781230281E-5 2.266180127765712E-5 2.8238343245283883E-5 3.3807434839047335E-5 3.8887806501929316E-5 4.2977672813685264E-5 4.563526367903997E-5 4.65571571578309E-5 4.563526367903997E-5 4.2977672813685264E-5 3.8887806501929316E-5 3.3807434839047335E-5 2.8238343245283883E-5 2.266180127765712E-5 1.747341781230281E-5 1.2944626292938417E-5 9.213600834566143E-6 6.300826050646546E-6 4.1399377187851705E-6 2.613474975286327E-6 4.878699867401566E-6 1.4181357765980587E-5 3.980717134417145E-5 1.0790327234735964E-4 2.8244748094396804E-4 7.139545878127819E-4 0.0017427426683554101 0.004107955522530075 0.00935078333032341 0.02055417490765323 0.0436296666254396 0.08943212166764564 0.17702514800465496 0.33838117262139455 0.6246075201813209 1.113366165404842 1.916454983558713 3.1855836840196177 5.113393405249022 7.926093449911886 11.864213753193601 17.149384181723274 23.938001465960358 32.266885032149105 42.00064761096741 52.794019051715615 64.0830620858541 75.11584877517468 85.0255980095114 92.93891628493009 98.1014227139139 99.99603968238304 98.42832337621921 93.55934385164726 85.87841889635051 76.12209031372606 81.87307530779819 90.48374180359595 96.07894391523232 98.01986733067552 96.07894391523232 90.48374180359595 81.87307530779819 71.17703227626097 59.452054797019436 47.71139155210344 36.78794411714422 27.253179303401264 19.401643117458026 13.278149316923423 8.736135754589357 5.525657848461738 3.359939015754095 1.9640909276505032 1.103759803405344 0.596307604601234 0.3097054952908999 0.15463587797433279 0.07422571797635477 0.03425163753138314 0.015194662612880083 0.006480127825748035 0.002656800068609669 0.0010471694518429807 3.9678737440911987E-4 1.4453782475836707E-4 5.061601776176532E-5 1.704029946786976E-5 5.51504755226517E-6 1.7159478683543388E-6 5.132650673164702E-7 1.4759176101544223E-7 4.080048367755405E-8 1.0843045946389948E-8 2.770257084273814E-9 6.804114915264914E-10
8.699502472413703E-7 1.378065554894573E-6 2.0973627956717965E-6 3.066941294563569E-6 4.308891782197059E-6 5.8163955230905655E-6 7.543458349844266E-6 9.39972791789601E-6 1.1253517471925882E-5 1.2944626292938417E-5 1.4306024524312938E-5 1.5190659675689652E-5 1.5497531357028978E-5 1.5190659675689652E-5 1.4306024524312938E-5 1.2944626292938417E-5 1.1253517471925882E-5 9.39972791789601E-6 7.543458349844266E-6 5.8163955230905655E-6 4.308891782197059E-6 3.066941294563569E-6 2.0973627956717965E-6 1.378065554894573E-6 1.0553879946138284E-6 3.219401895092401E-6 9.483486577431933E-6 2.69768144672601E-5 7.410424537420545E-5 1.9657365183790835E-4 5.035438722709216E-4 0.0012456014856772138 0.002975436680254725 0.006863602129322192 0.015289147863293195 0.032888514213708905 0.06831798050720803 0.13704259660206272 0.2654641810857213 0.49657639869450704 0.8970073704754982 1.5647167848265249 2.635756364060767 4.287504403099174 6.7349393178368295 10.216275309033607 14.965157135255055 21.168971956307743 28.91665453849026 38.14398986694045 48.5885549234248 59.76840140369376 70.99685160898895 81.43973145145718 90.21180415755013 96.49841869512427 99.67972190882463 99.43132607683219 95.77881024760966 89.09338038289793 80.02970744137929 77.10515858035663 85.21437889662113 90.48374180359595 92.31163463866358 90.48374180359595 85.21437889662113 77.10515858035663 67.03200460356393 55.989836656540206 44.932896411722155 34.64558103300575 25.66607769535559 18.26835240527347 12.493021219858248 8.208499862389877 5.1818917172725865 3.1429762018367717 1.831563888873417 1.0254896296404015 0.5516564420760778 0.28515445331713973 0.14169484382307646 0.06768785081723028 0.031084951382563647 0.013723738989021817 0.005824752767712539 0.0023766505647013067 9.322576562128178E-4 3.5155183910877164E-4 1.274458151366583E-4 4.441652461932524E-5 1.4881487996051287E-5 4.793259395862638E-6 1.4842200556288063E-6 4.418231308047212E-7 1.2643909871514367E-7 3.478540976872397E-8 9.2001656194402E-9 2.339251716921841E-9 5.717959275585396E-10
2.7822663710158763E-7 4.407315777651242E-7 6.707765177056668E-7 9.808661647953488E-7 1.378065554894573E-6 1.8601939266915526E-6 2.4125414705592214E-6 3.0062117880409033E-6 3.5990889498640312E-6 4.1399377187851705E-6 4.5753387694458E-6 4.8582619182234344E-6 4.956405319172502E-6 4.8582619182234344E-6 4.5753387694458E-6 4.1399377187851705E-6 3.5990889498640312E-6 3.0062117880409033E-6 2.4125414705592214E-6 1.8601939266915526E-6 1.378065554894573E-6 9.808661647953488E-7 6.707765177056668E-7 4.407315777651242E-7 6.837581954971263E-7 2.113706666369497E-6 6.30981581362099E-6 1.818940278233484E-5 5.0634903956013995E-5 1.3611667564825805E-4 3.533478636676312E-4 8.857749593912488E-4 0.002144243589174777 0.005012502873805613 0.011315270529687999 0.024666358629266513 0.05192481215317629 0.10555398146108023 0.20720684471492531 0.3927926641881332 0.719038975356625 1.2710753256164653 2.169801161096161 3.57683065596682 5.693857759475399 8.752752355222428 12.993090429515384 18.625591508775575 25.78323930381965 34.46630110721097 44.4919733991174 55.46237369807749 66.76441212689289 77.61066392436716 87.12194464680555 94.44163901654082 98.86197065087075 99.93665373558953 97.55513552532487 91.96133397178775 83.71247476353973 73.58764293111079 77.10515858035663 81.87307530779819 83.5270211411272 81.87307530779819 77.10515858035663 69.76763260710311 60.653065971263345 50.66169923655897 40.65696597405991 31.348618088260526 23.22362747297589 16.529888822158657 11.304153064044986 7.4273578214333895 4.688769521998851 2.843882471418451 1.6572675401761259 0.9279013887064737 0.4991593906910219 0.25799119720271807 0.1281146370384212 0.06112527611295737 0.028020194012871213 0.01234098040866794 0.005222234967574471 0.0021232022938522145 8.29381916075739E-4 3.112908354076503E-4 1.1230913320816042E-4 3.89535107635012E-5 1.298855761169131E-5 4.163494873488107E-6 1.283033314130639E-6 3.801024084242638E-7 1.0825453512433862E-7 2.963973844633212E-8 7.80163133730207E-9 1.9741460116976832E-9 4.802373204011508E-10
8.549313009381088E-8 1.354274432773538E-7 2.06115362243856E-7 3.0139931785484317E-7 4.234502454176725E-7 5.715980433472658E-7 7.413226998963535E-7 9.237449661970604E-7 1.105923512627486E-6 1.272114840115557E-6 1.4059043257481627E-6 1.4928405940256096E-6 1.5229979744712643E-6 1.4928405940256096E-6 1.4059043257481627E-6 1.272114840115557E-6 1.105923512627486E-6 9.237449661970604E-7 7.413226998963535E-7 5.715980433472658E-7 4.234502454176725E-7 3.0139931785484317E-7 2.06115362243856E-7 1.3586258135955367E-7 4.4074903282671756E-7 1.3807424172353837E-6 4.1769931059775995E-6 1.220238273725598E-5 3.442352338087321E-5 9.377688224694514E-5 2.4669824077177345E-4 6.2670925449694E-4 0.0015374321409885494 0.0036421312892597306 0.00833191883341069 0.018406205095357252 0.03926569384685878 0.08088948827384064 0.16091654249847745 0.3091285309377151 0.5734654795669376 1.0273188644480022 1.7771866355899373 2.9688660749832314 4.789365354293891 7.460967052176349 11.223855551603526 16.304925102335666 22.873116413591454 30.985725219153785 40.534776513257675 51.20633502226415 62.466819796799754 73.58764293111079 83.71247476353973 91.96133397178775 97.55513552532487 99.93665373558953 98.86197065087075 94.44163901654082 87.12194464680555 77.61066392436716 67.03200460356393 71.17703227626097 72.6149037073691 71.17703227626097 67.03200460356393 60.653065971263345 52.729242404304856 44.04316545059993 35.34546819587803 27.253179303401264 20.189651799465537 14.370394977770298 9.827358560436156 6.457034689316848 4.07622039783662 2.4723526470339383 1.4407591843112353 0.8066787139099616 0.43394832707388964 0.2242867719485806 0.11137751478448037 0.053139762179825314 0.024359586422561932 0.010728732951170824 0.004539992976248479 0.0018458233995780567 7.210299990312847E-4 2.706105612412539E-4 9.758079914099331E-5 3.3807434839047335E-5 1.1253517471925882E-5 3.5990889498640312E-6 1.105923512627486E-6 3.2650198323820526E-7 9.261360220567798E-8 2.5240446968792196E-8 6.6118140919189775E-9 1.6650489889543827E-9 4.031031458556524E-10
