11.304153064044986 12.493021219858248 13.30496980381502 14.055591660206948 14.837324947905445 15.650683998748455 16.496137784764304 17.374105974471483 18.284954966147556 19.228993915307 20.20647077458432 21.217568365111177 22.262400499298572 23.34100817567561 24.45335586708589 25.599327924094123 26.77872511589672 27.991261331356526 29.236560462982197 30.514153496742242 31.823475830534026 33.16386484391496 34.53455774133945 35.934689690629575 37.363292277734494 38.81929229800266 40.301510903200764 41.80866312236438 43.33935777325909 44.89209777977006 46.465280908927845 48.05720093952219 49.6660492723629 51.289916990223425 52.92679737336007 54.574588874246075 56.2310985528099 57.89404597103094 59.56106754324032 60.653065971263345 59.51394461772126 60.653065971263345 59.452054797019436 55.989836656540206 50.66169923655897 44.04316545059993 36.78794411714422 29.523016692401427 22.763768838381278 16.863814726859555 12.003162851145674 8.208499862389877 5.393368730035602 3.404745473459935 2.065082518171257 1.2034232284723767 0.6737946999085469 0.3624641108965754 0.18734005942224272 0.09303032032049485 0.04438606039028746
16.529888822158657 18.26835240527347 19.42180744143769 20.40599597411605 21.423833644159732 22.4754200029394 23.560781037422355 24.679865479647262 25.8325412358357 27.018591957509834 28.237713777286206 29.48951223219106 30.77349939738443 32.08909125308252 33.43560530722479 34.812258496038694 36.218165384107984 37.65233668484617 39.11367812141379 40.6009896470966 42.11296504298033 43.648191909421655 45.20515206632248 46.78222237557576 48.37767599726705 49.98968408929579 51.61631795803348 53.255551665468204 54.905265096013636 56.56324748378946 58.22720139873181 59.89474718737202 61.56342786155222 63.23071442573891 64.89401163096896 66.55066414083481 68.19796309230318 69.83315303158508 71.45343920275087 72.6149037073691 71.38304380349354 72.6149037073691 71.17703227626097 67.03200460356393 60.653065971263345 52.729242404304856 44.04316545059993 35.34546819587803 27.253179303401264 20.189651799465537 14.370394977770298 9.827358560436156 6.457034689316848 4.07622039783662 2.4723526470339383 1.4407591843112353 0.8066787139099616 0.43394832707388964 0.2242867719485806 0.11592291739045918 0.05756561714872758
23.22362747297589 25.66607769535559 27.259781933041822 28.485473587797532 29.743751857423323 31.0341098008755 32.355943885524816 33.708551663646155 35.091129731175776 36.50277199021386 37.94246823601406 39.409103088307006 40.90145528575157 42.41819736109448 43.95789571325159 45.51901109100222 47.099899501318866 48.69881355354324 50.31390424867339 51.943223220954295 53.584725436775706 55.236272353588014 56.89563553915996 58.56050074903705 60.2284724575293 61.89707883497743 63.56377716143431 65.2259596642702 66.88095976458423 68.52605871469757 70.15849260643651 71.77545972740272 73.37412823999288 74.95164415559124 76.50513957412981 78.03174115711752 79.52857880028988 80.99279447025044 82.42155116787318 83.5270211411272 82.33818109085031 83.5270211411272 81.87307530779819 77.10515858035663 69.76763260710311 60.653065971263345 50.66169923655897 40.65696597405991 31.348618088260526 23.22362747297589 16.529888822158657 11.304153064044986 7.4273578214333895 4.688769521998851 2.843882471418451 1.6572675401761259 0.9657697627537771 0.5407329126440966 0.29088426258125877 0.1503439192977573 0.07465858083766795
31.348618088260526 34.64558103300575 36.78794411714422 38.23367767042201 39.705557089032965 41.20289685932471 42.724348268541114 44.268456533463265 45.833661368045185 47.41829797807618 49.02059849370262 50.63869384866864 52.27061611303995 53.9143012839635 55.567592536703636 57.22824393579131 58.89392460364411 60.562223341472986 62.230653694704415 63.89665945253028 65.55762056856744 67.21085948698637 68.85364785586701 70.48321360698256 72.096748378715 73.69141525638851 75.26435680198887 76.81270334303419 78.33358148829511 79.82412283614751 81.28147283959227 82.7027997904149 84.08530388359097 85.42622632189156 86.72285841971132 87.97255066444633 89.17272169329519 90.32086714315192 91.41456833131133 92.31163463866358 91.33502576644334 92.31163463866358 90.48374180359595 85.21437889662113 77.10515858035663 67.03200460356393 55.989836656540206 44.932896411722155 34.64558103300575 25.66607769535559 18.26835240527347 12.493021219858248 8.208499862389877 5.393368730035602 3.404745473459935 2.065082518171257 1.2034232284723767 0.6737946999085469 0.3624641108965754 0.18734005942224272 0.09303032032049485
40.65696597405991 44.932896411722155 47.71139155210344 49.343015543992976 50.96403683266802 52.598479818612255 54.244261659771745 55.89920739767914 57.56105376038906 59.22745342205228 60.89597971343077 62.56413177506048 64.22934014214869 65.88897274766238 67.54034132744424 69.1807082085989 70.80729345984543 72.41728238004919 74.00783329874743 75.57608566018581 77.11916836020673 78.63420830329197 80.11833914517868 81.56871018475607 82.98249536742553 84.35690236078301 85.68918166237279 86.97663569837732 88.21662787146022 89.40659151557404 90.54403871539213 91.62656894812523 92.65187750584514 93.6177636570586 94.52213850715454 95.36303251848412 96.13860265222104 96.84713909578139 97.48707154145131 98.01986733067552 97.43238256843836 98.01986733067552 96.07894391523232 90.48374180359595 81.87307530779819 71.17703227626097 59.452054797019436 47.71139155210344 36.78794411714422 27.253179303401264 20.189651799465537 14.370394977770298 9.827358560436156 6.457034689316848 4.07622039783662 2.4723526470339383 1.4407591843112353 0.8066787139099616 0.43394832707388964 0.2242867719485806 0.11137751478448037
50.66169923655897 55.989836656540206 59.452054797019436 61.229721335912465 62.89749230813203 64.56179798129696 66.21999452398907 67.86938323532688 69.50721740752996 71.13070954588832 72.73703892186305 74.32335943266399 75.8868077383769 77.42451164556097 78.93359870422995 80.41120498327928 81.85448398774614 83.26061567980403 84.62681556411124 85.95034379706657 87.22851427868916 88.45870368523798 89.63836040033219 90.76501330223118 91.83628036508671 92.84987703239274 93.80362432153144 94.6954566192453 95.52342912905287 96.28572493306204 96.98066163231583 97.6066975317196 98.16243733773598 98.64663733938106 99.05821004559937 99.39622825481781 99.65992853536464 99.84871409846792 99.96215704870147 100.0 99.95376791575663 100.0 98.01986733067552 92.31163463866358 83.5270211411272 72.6149037073691 60.653065971263345 50.66169923655897 40.65696597405991 31.348618088260526 23.22362747297589 16.529888822158657 11.304153064044986 7.4273578214333895 4.688769521998851 2.843882471418451 1.6572675401761259 0.9279013887064737 0.4991593906910219 0.25799119720271807 0.1281146370384212
60.653065971263345 67.03200460356393 71.17703227626097 73.05599516433298 74.63797070679857 76.19650004152328 77.72871022977421 79.23172981823141 80.70269764576099 82.13877178451402 83.53713857697967 84.89502172938082 86.20969142078019 87.47847338647371 88.69875793369609 89.86800884735942 90.98377214349296 92.04368462825914 93.0454822208846 93.9870079995706 94.86621993043018 95.68119824073659 96.43015239925452 97.11142766815286 97.72351119295844 98.26503759918978 98.73479406669834 99.13172485532496 99.45493525823713 99.70369496222726 99.87744079730858 99.97577886111937 99.99848600691898 99.94551068730848 99.98843997458083 99.98843997458083 99.89600786656074 99.71139991200197 99.43512745012069 99.06795453802769 98.6108944300368 98.06520491882705 96.07894391523232 90.48374180359595 85.21437889662113 77.10515858035663 67.03200460356393 55.989836656540206 44.932896411722155 34.64558103300575 25.66607769535559 18.26835240527347 12.493021219858248 8.208499862389877 5.1818917172725865 3.1429762018367717 1.831563888873417 1.0254896296404015 0.5516564420760778 0.28512436826796334 0.14158857103468014
69.76763260710311 77.10515858035663 81.87307530779819 83.8120419798288 85.1614991784018 86.46720332878894 87.7264923623265 88.93677057359012 90.09551749905724 91.20029663502115 92.24876395270327 93.23867616902723 94.16789873229492 95.03441348303905 95.8363259516146 96.57187225562693 97.2394255620694 97.83750208104847 98.36476656019676 98.82003725130298 99.20229032330423 99.51066369857696 99.74446029240809 99.90315063860807 99.98637488742467 99.99394416520502 99.92584128861583 99.78222082964125 100.0 99.95376791575663 99.8151998678412 99.58467987834544 99.26284601341155 98.85058744059087 98.34904033578132 97.75958266611319 97.08382788231094 96.3236175609399 95.4810130434945 94.55828612544843 93.55790885411609 96.07894391523232 98.01986733067552 96.07894391523232 90.48374180359595 81.87307530779819 71.17703227626097 59.452054797019436 47.71139155210344 36.78794411714422 27.253179303401264 19.398004229089185 13.265546508012175 8.716085146198127 5.502322005640725 3.337326996032607 1.9448214745385404 1.0889023668554452 0.5857689713335614 0.30275547453758134 0.1503439192977573
77.10515858035663 85.21437889662113 90.48374180359595 92.45150072501535 93.42944215843892 94.34628075654172 95.20002252629797 95.98879857715403 96.7108719341475 97.36464390894422 97.94865999609792 98.46161526410337 98.90235921328012 99.2699000751775 99.56340853101449 99.78222082964125 99.92584128861583 99.99394416520502 99.98637488742467 99.90315063860807 99.74446029240809 99.51066369857696 99.20229032330423 98.82003725130298 98.36476656019676 97.83750208104847 97.2394255620694 96.57187225562693 98.01986733067552 97.43238256843836 96.714155876107 95.91247740666856 95.0295149496184 94.0676417548713 93.02942590875809 91.91761891679384 90.7351435642147 89.48508112917499 88.17065802679775 89.19331789699663 95.04416844714586 98.73732766811945 100.0 98.01986733067552 92.31163463866358 83.5270211411272 72.6149037073691 60.653065971263345 48.67522559599717 37.531109885139955 27.803730045319412 19.789869908361467 13.53352832366127 8.892161745938635 5.613476283413374 3.404745473459935 1.9841094744370291 1.110899653824231 0.5976022895005945 0.308871540823677 0.15338106793244638
81.87307530779819 90.48374180359595 96.07894391523232 98.05697498396351 98.55557500707131 98.98175253167328 99.33454800073119 99.61316497907737 99.81697314921068 99.94551068730848 99.99848600691898 99.97577886111937 99.87744079730858 99.70369496222726 99.45493525823713 99.13172485532496 98.73479406669834 98.26503759918978 97.72351119295844 97.11142766815286 96.43015239925452 95.68119824073659 94.86621993043018 93.9870079995706 93.0454822208846 92.04368462825914 90.98377214349296 90.48374180359595 92.31163463866358 91.33502576644332 90.1183623226515 88.83570771662271 87.49035576768036 86.08572450855083 84.62534176473402 83.11283045542686 81.5518937012988 79.94629982424797 87.49452794757806 93.81013223756435 98.0576185381068 99.9253487647241 99.27336463889779 96.15072161664582 90.48374180359595 81.87307530779819 71.17703227626097 59.452054797019436 47.71139155210344 36.78794411714422 27.253179303401264 19.398004229089185 13.265546508012175 8.716085146198127 5.502322005640725 3.337326996032607 1.9448214745385404 1.0889023668554452 0.5857689713335614 0.30275547453758134 0.1503439192977573
83.5270211411272 92.31163463866358 98.01986733067552 100.0 99.96215704870147 99.84871409846792 99.65992853536464 99.39622825481781 99.05821004559937 98.64663733938106 98.16243733773598 97.6066975317196 96.98066163231583 96.28572493306204 95.52342912905287 94.6954566192453 93.80362432153144 92.84987703239274 91.83628036508672 90.7650133022312 89.63836040033219 88.45870368523798 87.22851427868915 85.95034379706655 84.62681556411124 83.26061567980403 81.85448398774614 81.87307530779819 83.5270211411272 82.33818109085031 80.75444124711255 79.12794819553075 77.46253990532166 75.76208212364577 74.03045365090686 72.27153187284594 77.4460001397758 85.69999778493944 92.45392780915024 97.23724819401724 99.70172926093642 99.66334508723632 97.12498530617178 92.27609557785915 85.46930883575808 77.10515858035663 67.03200460356393 55.989836656540206 44.932896411722155 34.64558103300575 25.66607769535559 18.26835240527347 12.493021219858248 8.208499862389877 5.1818917172725865 3.1429762018367717 1.831563888873417 1.0254896296404015 0.5516564420760778 0.28512436826796334 0.14158857103468014
81.87307530779819 90.48374180359595 96.07894391523232 98.01986733067552 97.48707154145131 96.84713909578139 96.13860265222102 95.36303251848412 94.52213850715454 93.6177636570586 92.65187750584514 91.62656894812523 90.54403871539213 89.40659151557404 88.2166278714602 86.97663569837731 85.68918166237279 84.35690236078301 82.98249536742553 81.56871018475607 80.11833914517868 78.63420830329197 77.11916836020671 75.5760856601858 74.00783329874743 72.41728238004919 70.80729345984543 71.17703227626097 72.6149037073691 71.38304380349354 69.59041437698872 67.78008714515039 65.9558259984809 64.1213333676501 65.91432000459162 75.27912395841172 83.8169926834985 90.98134025633978 96.27983194534458 99.33014160237916 99.90552889944318 97.96269622274258 93.64717347726311 87.27530103087712 79.29590770247724 70.23812860992842 60.653065971263345 50.66169923655897 40.65696597405991 31.348618088260526 23.22362747297589 16.529888822158657 11.304153064044986 7.4273578214333895 4.688769521998851 2.843882471418451 1.6572675401761259 0.9279013887064737 0.4991593906910219 0.25799119720271807 0.1281146370384212
77.10515858035663 85.21437889662113 90.48374180359595 92.31163463866358 91.41456833131133 90.3208671431519 89.17272169329517 87.97255066444633 86.72285841971132 85.42622632189158 84.08530388359097 82.7027997904149 81.28147283959227 79.8241228361475 78.3335814882951 76.81270334303416 75.26435680198887 73.69141525638851 72.096748378715 70.48321360698256 77.10515858035663 81.87307530779819 83.5270211411272 81.87307530779819 77.10515858035663 69.76763260710311 60.653065971263345 59.452054797019436 60.653065971263345 59.51394461772126 57.67164097033075 55.834704444706 54.00630623234504 63.581531617110464 73.0636670800044 81.85301551847411 89.39858387807796 95.18956292764574 98.81224436337314 99.99883314566428 98.66016529148783 94.89678139196303 88.986446501529 81.35026720631758 72.50314420598333 62.99664711265223 53.36306521932425 44.06835485770312 35.34546819587803 27.253179303401264 20.189651799465537 14.370394977770298 9.827358560436156 6.457034689316848 4.07622039783662 2.4723526470339383 1.4407591843112353 0.8066787139099616 0.43394832707388964 0.2242867719485806 0.11137751478448037
69.76763260710311 77.10515858035663 81.87307530779819 83.5270211411272 82.42155116787318 80.99279447025043 79.52857880028986 78.03174115711752 76.50513957412981 74.95164415559124 73.3741282399929 71.77545972740272 70.15849260643651 68.52605871469757 66.88095976458423 65.22595966427018 63.56377716143431 61.89707883497743 67.03200460356393 77.10515858035663 85.21437889662113 90.48374180359595 92.31163463866358 90.48374180359595 85.21437889662113 77.10515858035663 67.03200460356393 55.989836656540206 48.67522559599717 47.71690763875572 45.962651625861994 51.635703414301624 61.239768490742975 70.807574914044 79.81575726687346 87.71225855618047 93.97118151617454 98.15034224662746 99.94284014643947 99.21430471568694 96.01954356802044 90.59572792579117 83.33329192653879 74.72950320980719 65.33236651539286 55.683615007011014 46.268901858576065 37.48121837894895 29.60062936872862 22.763768838381278 16.863814726859555 12.003162851145674 8.208499862389877 5.393368730035602 3.404745473459935 2.065082518171257 1.2034232284723767 0.6737946999085469 0.3624641108965754 0.18734005942224272 0.09303032032049485
60.653065971263345 67.03200460356393 71.17703227626097 72.6149037073691 71.45343920275087 69.83315303158507 68.19796309230316 66.55066414083481 64.89401163096896 63.230714425738924 61.56342786155224 59.89474718737202 58.22720139873181 56.56324748378946 54.90526509601361 53.25555166546819 51.61631795803348 59.452054797019436 71.17703227626097 81.87307530779819 90.48374180359595 96.07894391523232 98.01986733067552 96.07894391523232 90.48374180359595 81.87307530779819 71.17703227626097 59.452054797019436 47.71139155210344 40.32105557103628 49.35467517129952 58.8962224592144 68.51873253084734 77.71304724469088 85.92930400853791 92.62994100355967 97.34736899829161 99.73780058741181 99.62265074792896 97.01058804456765 92.09645610068824 85.23725163570347 76.90927102172941 67.6535654530251 58.01835644271692 48.506829787588245 39.5369441691406 31.417096407710755 24.338383370821205 18.381466130161776 13.53352832366127 9.6327638230493 6.587475442640296 4.32827979019659 2.7323722447292553 1.6572675401761259 0.9657697627537771 0.5407329126440966 0.29088426258125877 0.1503439192977573 0.07465858083766795
50.66169923655897 55.989836656540206 59.452054797019436 60.653065971263345 59.56106754324032 57.89404597103094 56.23109855280989 54.574588874246075 52.92679737336007 51.289916990223446 49.6660492723629 48.05720093952219 46.465280908927845 44.892097779770054 43.339357773259074 41.80866312236438 50.041992036057 61.83075876067514 73.51414805916845 84.10729144396826 92.5961078642316 98.09529623602027 100.0 98.01986733067552 92.31163463866358 83.5270211411272 72.6149037073691 60.653065971263345 48.67522559599717 47.104006006975084 56.557823233642004 66.20492019847937 75.55280352649048 84.0569523598345 91.17156988914253 96.40686574747231 99.38463164968813 99.88338193742246 97.86558185709359 93.48231615157034 87.05459177459443 79.03448727621382 69.95267631528156 60.3607694110626 50.777105060968395 41.64317600930003 33.29526607025279 25.95277925012145 19.72186553003573 14.610828785784701 10.552720791241994 7.430478487123252 5.079283386489853 3.337326996032607 2.1067999523041445 1.2778387649535765 0.744658307092434 0.41693296979041133 0.2242867719485806 0.11592291739045918 0.05756561714872758
40.65696597405991 44.932896411722155 47.71139155210344 48.67522559599717 47.7374033350775 46.14908924613699 44.57986155107254 43.031405788005515 41.50530323805546 40.00302984391122 38.52595555774657 37.07534410616682 35.65235315814402 34.258034880319016 32.89333686261774 41.09717633198678 52.36545452178923 64.20578161253883 75.75298717730027 86.0046147948318 93.95937365436264 98.77677375642632 99.92310650129109 97.2687609256741 91.11234111841951 82.12538042525331 71.23180490324458 59.452054797019436 47.71139155210344 54.23120787063518 63.87377109310748 73.34298398089338 82.10267948183296 89.60223115854741 95.33295499398943 98.88491017536293 99.9953326643494 98.58076258852093 94.74741172582108 88.77798305950641 81.09721328445357 72.22196916446636 62.70403054445814 53.07430643057278 43.79615005696459 35.23305325968336 27.632957126772702 21.128427899861162 15.749607750013405 11.445507067789551 8.108921038708353 5.6008487232527076 3.771441291469512 2.4723526470339383 1.5607557919982848 0.9466462401710334 0.5516564420760778 0.308871540823677 0.1661557273173933 0.08587780939743375 0.042645658068565434
31.348618088260526 34.64558103300575 36.78794411714422 37.531109885139955 36.788501092505385 35.37116386726062 33.98269716040122 32.624027788894615 31.29597956666202 29.999274978811684 28.73453716382927 27.502292182383155 26.302971550791014 25.136915016740915 32.930555165970965 43.270792889296956 54.71255801684593 66.56953956701872 77.94000910703693 87.80954309205613 95.19614209436365 99.31008323668628 99.69278057995146 96.30092058345122 89.51452970872701 80.0668966747206 68.91421661553295 57.07698412146791 51.92269356972474 61.53273148480647 71.09153833805001 80.07415555914056 87.92847895813206 94.13031051172564 98.24086093946906 99.95800182053858 99.15296594666698 95.88630673886527 90.40037048586571 83.0895806595666 74.45359313034787 65.04104252149924 55.392639952198074 45.991690295138625 37.22797523285779 29.37799815074889 22.601523763707306 16.951806167231076 12.395298041420423 8.836101729739196 6.140831466467163 4.160604048374881 2.748199991021622 1.7697137209403302 1.110899653824231 0.6737946999085469 0.3926526838305625 0.2198455963042534 0.11826471566155732 0.06112527611295737 0.030353913807886636
23.22362747297589 25.66607769535559 27.253179303401264 27.803730045319412 27.253179303401264 26.06708982633641 24.907719014451736 23.781903094181335 22.689790740874592 21.631449106205064 20.606867362458363 19.615960370901387 18.65857245218974 25.745171863043737 34.88626723878052 45.48933388179108 57.07698412146791 68.91421661553295 80.0668966747206 89.51452970872701 96.30092058345122 99.69278057995146 99.31008323668628 95.19614209436365 87.80954309205613 77.94000910703693 66.56953956701872 54.71255801684593 59.18902366545493 68.80636168330044 77.97919533477638 86.15721308988051 92.80412347497416 97.4553401504157 99.77155654599792 99.57964908527235 96.89406425936824 91.9150212722267 85.00384071601643 76.63962009574097 67.36446660798327 57.725957485216696 48.2252127929853 39.27714371194146 31.186625171679637 24.141241525453434 18.218539526582717 13.403871478760859 9.614123319742664 6.722825824337467 4.583072933143706 3.045961537147823 1.9735802896380166 1.2466597013367522 0.7677216367226416 0.4609166298161205 0.26852001769538214 0.1503439192977573 0.08087667511241124 0.04180121746110127 0.020757870271771763
16.529888822158657 18.26835240527347 19.398004229089185 19.789869908361467 19.398004229089185 18.47109871856371 17.553634566223707 16.66911775339728 15.817193012686873 14.997451011843852 14.20943232306858 13.523121920234447 19.638224140548196 27.442509778638087 36.901312114211805 47.74810674194458 59.45205479701943 71.23180490324458 82.12538042525331 91.11234111841951 97.2687609256741 99.92310650129109 98.77677375642632 93.95937365436264 86.0046147948318 75.75298717730027 64.20578161253883 56.84961184805641 66.49524974532143 75.82570848294104 84.2956317678502 91.36006515120536 96.53181435013788 99.43683098231865 99.85890942810106 97.76628214468711 93.31557129049936 86.83241421573385 78.77209034987649 69.6667582695752 60.0677787139426 50.491733302168754 41.377259653926835 33.05718798319166 25.747367263462927 19.55070784873967 14.47287735192779 10.445037780858026 7.348993890387318 5.040904793824162 3.370946357565727 2.1976469552184517 1.3967759463353902 0.8654825320567442 0.5228204952107884 0.30789996457680346 0.17677848653455794 0.09878299405312299 0.053139762179825314 0.027465356997214266 0.013638892648201145
11.304153064044986 12.493021219858248 13.265546508012175 13.53352832366127 13.265546508012175 12.584903591518904 11.89479963072793 11.234030704925061 10.601939473596278 9.997842078777913 9.759557966336759 14.615655707154243 21.062156056041992 29.206782369141415 38.972742584134195 50.041992036057 61.83075876067514 73.51414805916845 84.10729144396826 92.5961078642316 98.09529623602027 100.0 98.09529623602027 92.5961078642316 84.10729144396826 73.51414805916845 61.83075876067514 64.16585631758453 73.62165054435954 82.35118308735446 89.80424653521465 95.47433493206366 98.95532005596147 99.98949880112278 98.4991250667987 94.59606953557244 88.56794101893031 80.84305985558056 71.940205645994 62.411316643148005 52.785878286284316 43.52461087636021 34.98765051567375 27.41936546499045 20.948974024034996 15.603817203989445 11.330829051620892 8.021493916452592 5.536197402263871 3.7250371952981496 2.4435003058191156 1.5626327405404423 0.9742360119211853 0.5921533301579656 0.3508867030256525 0.20270403007227059 0.11416174364733357 0.06268181179944203 0.033546262790251205 0.017338430690350532 0.008610009871634024
7.4273578214333895 8.208499862389877 8.716085146198127 8.892161745938635 8.716085146198127 8.244494622573004 7.750044409239221 7.279735184277998 6.832792142475282 6.872155952283785 10.613144317950649 15.77217180611457 22.554608581602366 31.036694126548497 41.09717633198678 52.36545452178923 64.20578161253883 75.75298717730027 86.0046147948318 93.95937365436264 98.77677375642632 99.92310650129109 97.2687609256741 91.11234111841951 82.12538042525331 71.23180490324458 61.825653119401245 71.3749748427083 80.33151566261333 88.14317532631826 94.28750853898765 98.3291683562575 99.9708327258886 99.08935260275808 95.75102020031463 90.20332918808904 82.84464874853698 74.17697063852611 64.74950648108575 55.10189944891714 45.71507271819612 36.975580215401635 29.156360942463564 22.413742383308254 16.79802300410154 12.273394816378856 8.7424664847675 6.071080406306581 4.110178954160581 2.7128027386128393 1.7455746927658184 1.0950183482020752 0.6696796367756626 0.3992781348105622 0.2320848013325166 0.13151661142373927 0.07265696593756772 0.03913241438347236 0.020547489482697984 0.01051825335628136 0.005222234967574471
4.688769521998851 5.1818917172725865 5.502322005640725 5.613476283413374 5.502322005640725 5.193201428258105 4.85521240552075 4.535785815350675 4.721342857828521 7.519336316600614 11.523644351760606 16.994036589804633 24.115685844198183 32.930555165970965 43.270792889296956 54.71255801684593 66.56953956701872 77.94000910703693 87.80954309205613 95.19614209436365 99.31008323668628 99.69278057995146 96.30092058345122 89.51452970872701 80.0668966747206 68.91421661553295 69.0935857792931 78.24442888768635 86.38371067183392 92.97646364346079 97.56115422391036 99.80299477727657 99.53434310183428 96.77542194019009 91.73180308934008 84.76909066296079 76.36913232626004 67.07503778371645 57.43369179162254 47.94411189187143 39.018139838904105 30.95712217732447 23.945137717111496 18.056635648275808 13.274527396155039 9.514019541988633 6.647705136855577 4.528373019216361 3.0072904707841843 1.947023977272048 1.2289379601278199 0.7562255669638676 0.4536652255206926 0.2653275600274698 0.1512836427341052 0.08409386647589985 0.045572138264655095 0.024076714856859256 0.012401030913333791 0.006227031870706711 0.0030483661087084535
2.843882471418451 3.1429762018367717 3.337326996032607 3.404745473459935 3.337326996032607 3.1453087222542475 2.9246187490105617 3.1429762018367717 5.1818917172725865 8.208499862389877 12.493021219858248 18.282410390270858 25.745171863043737 34.88626723878052 45.48933388179108 57.07698412146791 68.91421661553295 80.0668966747206 89.51452970872701 96.30092058345122 99.69278057995146 99.31008323668628 95.19614209436365 87.80954309205613 77.94000910703693 66.78529387771992 76.09782326923819 84.53301611631315 91.54681364985015 96.65466921519015 99.4867359601429 99.83211308335079 97.66480393524783 93.14695003654843 86.60878245830426 78.5087323922333 69.38038969411495 59.77481519688625 50.20679365673606 41.112081879044204 32.820046337871034 25.54298496966411 19.380583277880543 14.335893853779725 10.338212331028359 7.268233252980304 4.981670542920431 3.3287707492497027 2.168480435391512 1.3771773376365422 0.8526817433545824 0.5146912666138478 0.30287914554929873 0.17376194989183572 0.0971857810036811 0.05299239090677839 0.028170012352768885 0.014599006371294524 0.007376023580511999 0.0036331558872503846 0.0017446507687899034
1.6572675401761259 1.831563888873417 1.9448214745385404 1.9841094744370291 1.9448214745385404 1.831674812074019 1.9448214745385404 3.337326996032607 5.502322005640725 8.716085146198127 13.265546508012175 19.398004229089185 27.253179303401264 36.78794411714422 47.71139155210344 59.452054797019436 71.23180490324458 82.12538042525331 91.11234111841951 97.2687609256741 99.92310650129109 98.77677375642632 93.95937365436264 86.0046147948318 75.75298717730027 73.8996512682821 82.59851120674936 90.00461688934764 95.61369315421129 99.02346911138459 99.98133196439827 98.41525838580178 94.44276503006354 88.35633390653064 80.58782220922664 71.65786907177275 62.118519493301704 52.49779241508492 43.25374582350241 34.74314621530714 27.206789842652935 20.77055960324561 15.45901543327808 11.217038271834879 7.934824219311705 5.472164653216224 3.6791181971990246 2.411521076715364 1.54099461569813 0.9600059355467351 0.5830549044347121 0.3452293615507274 0.19928230372545414 0.11214824524330297 0.06152887407697281 0.032910023387491744 0.017160903594306387 0.008723983788366078 0.004323667475342704 0.0020890674363319567 9.840459330821962E-4
0.9279013887064737 1.0254896296404015 1.0889023668554452 1.110899653824231 1.0889023668554452 1.110899653824231 1.9841094744370291 3.404745473459935 5.613476283413374 8.892161745938635 13.53352832366127 19.789869908361467 27.803730045319412 37.531109885139955 48.67522559599717 60.653065971263345 72.6149037073691 83.5270211411272 92.31163463866358 98.01986733067552 100.0 98.09529623602027 92.5961078642316 84.10729144396826 73.51414805916845 80.58782220922664 88.35633390653064 94.44276503006354 98.41525838580178 99.98133196439827 99.02346911138459 95.61369315421129 90.00461688934764 82.59851120674936 73.8996512682821 64.45777292124527 54.811405800453606 45.439058427204884 36.72403931683781 28.935720550390382 22.227002433865483 16.64524647060673 12.152406858256358 8.64962162218106 6.001981547185548 4.060270238258057 2.6777989153182884 1.7217247420071458 1.0792255474795427 0.6595131388334895 0.3929139282601915 0.22820971790652386 0.12922114405019663 0.07133386687822507 0.03839022786595905 0.02014226708955231 0.010302882543539157 0.0051377371851567015 0.0024977430446553204 0.0011838218990842756 5.470004939543327E-4
0.4991593906910219 0.5516564420760778 0.5857689713335614 0.5976022895005945 0.5857689713335614 1.0889023668554452 1.9448214745385404 3.337326996032607 5.502322005640725 8.716085146198127 13.265546508012175 19.398004229089185 27.253179303401264 36.78794411714422 47.71139155210344 59.452054797019436 71.17703227626097 81.87307530779819 90.48374180359595 96.07894391523232 98.01986733067552 96.07894391523232 90.48374180359595 81.87307530779819 78.5087323922333 86.60878245830426 93.14695003654843 97.66480393524783 99.83211308335079 99.4867359601429 96.65466921519015 91.54681364985015 84.53301611631315 76.09782326923819 66.78529387771992 57.14157229386876 47.66353715781674 38.75993934600493 30.728590971721403 23.750072629381286 17.895752929630298 13.146124654701682 9.414738344244144 6.573270442387967 4.47422154283885 2.969041076440524 1.920780177971081 1.211439868229837 0.744884258705116 0.4465174838694466 0.2609461410064098 0.14867091907759547 0.08257791465941727 0.04471616338467133 0.023606298522883987 0.012149376566070784 0.006095970111350434 0.0029819091150144745 0.0014220298531639893 6.611283226692792E-4 2.9965777415131195E-4
0.25799119720271807 0.28512436826796334 0.30275547453758134 0.308871540823677 0.5516564420760778 1.0254896296404015 1.831563888873417 3.1429762018367717 5.1818917172725865 8.208499862389877 12.493021219858248 18.26835240527347 25.66607769535559 34.64558103300575 44.932896411722155 55.989836656540206 67.03200460356393 77.10515858035663 85.21437889662113 90.48374180359595 92.31163463866358 90.48374180359595 85.21437889662113 77.10515858035663 84.76909066296079 91.73180308934008 96.77542194019009 99.53434310183428 99.80299477727657 97.56115422391036 92.97646364346079 86.38371067183392 78.24442888768635 69.0935857792931 59.48189236773583 49.92229694784703 40.847650288472735 32.58384544518416 25.339633696492843 19.211490733461883 14.19987549327915 10.232240631612646 7.188192367764887 4.923017446101489 3.287046109796553 2.1396510708850736 1.3578220351006314 0.8400506781061384 0.5066766131612184 0.2979332462784466 0.1707929013564643 0.09545164148483742 0.05200675113374175 0.027624777244063953 0.01430541900855353 0.007222126959936483 0.003554613551728408 0.001705620485341445 7.9787554177533E-4 3.638736765490355E-4 1.617815019752693E-4
0.1281146370384212 0.14158857103468014 0.1503439192977573 0.25799119720271807 0.4991593906910219 0.9279013887064737 1.6572675401761259 2.843882471418451 4.688769521998851 7.4273578214333895 11.304153064044986 16.529888822158657 23.22362747297589 31.348618088260526 40.65696597405991 50.66169923655897 60.653065971263345 69.76763260710311 77.10515858035663 81.87307530779819 83.5270211411272 81.87307530779819 77.10515858035663 82.84464874853698 90.20332918808904 95.75102020031463 99.08935260275808 99.9708327258886 98.3291683562575 94.28750853898765 88.14317532631826 80.33151566261333 71.3749748427083 61.825653119401245 52.21006035837375 42.9835633061081 34.499545452081534 26.995232265928504 20.593184076687756 15.315199989253776 11.10413110267863 7.848907786906864 5.4087462929594015 3.633680447316613 2.3799048336928808 1.5196206546674096 0.9459616329189107 0.5740828782096481 0.33965530661031657 0.19591376537239752 0.11016768836183155 0.06039573342600079 0.032279070473086535 0.016818936007413687 0.00854355764379589 0.004230987355895492 0.002042713403673141 9.614703312126814E-4 4.4119143621250927E-4 1.9736993500556418E-4 8.607908857540481E-5
0.06112527611295737 0.06755387751938452 0.11137751478448037 0.2242867719485806 0.43394832707388964 0.8066787139099616 1.4407591843112353 2.4723526470339383 4.07622039783662 6.457034689316848 9.827358560436156 14.370394977770298 20.189651799465537 27.253179303401264 35.34546819587803 44.04316545059993 52.729242404304856 60.653065971263345 67.03200460356393 71.17703227626097 72.6149037073691 71.94020564599396 80.84305985558056 88.56794101893031 94.59606953557244 98.4991250667987 99.98949880112278 98.95532005596147 95.47433493206366 89.80424653521465 82.35118308735446 73.62165054435954 64.16585631758453 54.521171228137014 45.16365662347292 36.47335842714794 28.716079690317553 22.041303918277467 16.493474509789525 12.032330763734668 8.55756305855227 5.933530672745579 4.010873945726268 2.643185067869908 1.69816102453803 1.0636356943700367 0.649485822511517 0.3866421393298936 0.22439409934281682 0.12696277835971245 0.07003322733872253 0.03766123876069993 0.019744575403857396 0.010091686129573875 0.005028545777807252 0.0024427769830922506 0.0011568790807322785 5.341396954579264E-4 2.4042768711485154E-4 1.0550592280551954E-4 4.5136921972344766E-5
0.028020194012871213 0.053139762179825314 0.09878299405312299 0.18734005942224272 0.3624641108965754 0.6737946999085469 1.2034232284723767 2.065082518171257 3.404745473459935 5.393368730035602 8.208499862389877 12.003162851145674 16.863814726859555 22.763768838381278 29.523016692401427 36.78794411714422 44.04316545059993 50.66169923655897 55.989836656540206 60.067778713942566 69.66675826957515 78.77209034987646 86.83241421573382 93.31557129049936 97.76628214468711 99.85890942810106 99.43683098231865 96.53181435013788 91.36006515120536 84.2956317678502 75.82570848294104 66.49524974532143 56.84961184805641 47.38349856882721 38.50254892826813 30.501035008018064 23.556046867862495 17.735889747793145 13.018660113004636 9.316275752342108 6.499517514543163 4.420614457999257 2.9312097648123965 1.8948458960388006 1.194163052127729 0.7336959163223414 0.43947210258606634 0.2566310843046794 0.14609990850512228 0.08108739837967706 0.04387524221876792 0.023144533154862996 0.011902551269348964 0.005967527571575485 0.0029168328691652323 0.0013899250882821808 6.457047488751422E-4 2.92441703163869E-4 1.2912411748581323E-4 5.5582511399137654E-5 2.3325539791290545E-5
0.04180121746110127 0.08087667511241124 0.1503439192977573 0.26852001769538214 0.4609166298161193 0.7677216367226408 1.2466597013367533 1.9735802896380157 3.045961537147824 4.583072933143704 6.722825824337472 9.6327638230493 13.53352832366127 18.26835240527347 24.14124152545342 31.186625171679623 39.277143711941434 48.22521279298528 57.72595748521666 67.36446660798325 76.63962009574095 85.00384071601641 91.91502127222667 96.89406425936824 99.57964908527235 99.77155654599792 97.4553401504157 92.80412347497416 86.15721308988051 77.97919533477638 68.80636168330044 59.18902366545493 49.6382539065523 40.583972385141024 32.34858951942364 25.137314689266617 19.043429068994687 14.064819431630818 10.127118852016908 7.1088670237730165 4.86494138243963 3.2457687217615363 2.11115571594413 1.338707516262172 0.8275874073146083 0.49877512187786927 0.29306127231321816 0.16787066689829203 0.09374625737151937 0.05103825280773171 0.027089463048152254 0.01401740858351231 0.007071276280690344 0.003477688000568362 0.0016674244505384998 7.794072691420391E-4 3.5517752448364605E-4 1.5779354663825998E-4 6.834326725291954E-5 2.8857916610509938E-5 1.1879466819340439E-5
0.06112527611295737 0.11826471566155732 0.2198455963042534 0.3926526838305625 0.6737946999085469 1.110899653824231 1.769713720940332 2.748199991021621 4.160604048374887 6.140831466467154 8.836101729739202 12.395298041420418 16.951806167231087 22.60152376370729 29.37799815074887 37.22797523285776 45.9916902951386 55.39263995219805 65.04104252149922 74.45359313034785 83.08958065956658 90.4003704858657 95.88630673886527 99.15296594666698 99.95800182053858 98.24086093946906 94.13031051172564 87.92847895813206 80.07415555914056 71.09153833805001 61.53273148480647 51.92269356972474 42.71407163183796 34.2568532208057 26.784694654411904 20.416846815915694 15.172368377310013 10.992103893302138 7.763740451407666 5.345938144009852 3.5887201098128942 2.348648283803378 1.4985081841211523 0.9321010369884435 0.5652357219897439 0.33416345152705845 0.19259767185190324 0.10821958287414836 0.05928207765673308 0.03165947537241177 0.016483398172454016 0.008366667747675378 0.004140197262429131 0.0019973413013851435 9.393907270585359E-4 4.3072788924139726E-4 1.92540659265139E-4 8.390824813966092E-5 3.5649183791066524E-5 1.476580965148541E-5 5.962490195566551E-6
0.08587780939743375 0.1661557273173933 0.308871540823677 0.5516564420760778 0.9466462401710334 1.5607557919982848 2.4723526470339383 3.771441291469509 5.600848723252713 8.108921038708338 11.445507067789567 15.749607750013398 21.128427899861173 27.632957126772666 35.23305325968334 43.79615005696458 53.07430643057276 62.70403054445812 72.22196916446633 81.09721328445355 88.7779830595064 94.74741172582107 98.58076258852091 99.9953326643494 98.88491017536293 95.33295499398943 89.60223115854741 82.10267948183296 73.34298398089338 63.87377109310748 54.23120787063518 44.88887640989625 36.22354333617235 28.497440987737892 21.8566467668116 16.3427050134142 11.913163099558957 8.466286699110157 5.865723569558701 3.9619861340365157 2.6089577604715237 1.6748807152221983 1.048246579596274 0.6395960361319117 0.3804615832193991 0.2206371280023745 0.12474097042108202 0.06875469796424781 0.03694523016475967 0.01935428411687092 0.0098845883006759 0.004921560138977345 0.002388964768249413 0.0011305230753166475 5.215691014239253E-4 2.3458866124496266E-4 1.0286435710625294E-4 4.3972945050737514E-5 1.832605255720025E-5 7.445862981012015E-6 2.949333542503037E-6
0.11592291739045918 0.2242867719485806 0.41693296979041133 0.744658307092434 1.2778387649535765 2.1067999523041445 3.337326996032607 5.079283386489853 7.430478487123258 10.55272079124199 14.610828785784715 19.72186553003572 25.95277925012146 33.295266070252765 41.6431760093 50.777105060968374 60.36076941106256 69.95267631528155 79.03448727621381 87.05459177459441 93.48231615157033 97.86558185709357 99.88338193742246 99.38463164968813 96.40686574747231 91.17156988914253 84.0569523598345 75.55280352649048 66.20492019847937 56.557823233642004 47.104006006975084 38.24597517981088 30.274457645805835 23.363060960747713 17.577044423329788 12.892130594724646 9.218627776621224 6.426442126838344 4.367547729230607 2.893792963204838 1.869218154668891 1.1771051567475166 0.722658760512726 0.43252779281746595 0.2523814922772474 0.14357000862137811 0.07962192747024867 0.043049130550519475 0.02269127087190856 0.011660468320026146 0.005841654995989823 0.0028531102423734905 0.0013585134392752806 6.30626276989496E-4 2.853927423221785E-4 1.259147257383242E-4 5.415927733558834E-5 2.271077399157316E-5 9.284397963862688E-6 3.700311603750361E-6 1.4377573128410944E-6
0.1503439192977573 0.29088426258125877 0.5407329126440966 0.9657697627537771 1.6572675401761259 2.7323722447292553 4.32827979019659 6.587475442640296 9.6327638230493 13.53352832366127 18.381466130161787 24.338383370821195 31.41709640771077 39.536944169140575 48.506829787588224 58.01835644271689 67.65356545302508 76.90927102172938 85.23725163570344 92.09645610068821 97.01058804456764 99.62265074792894 99.73780058741183 97.34736899829161 92.62994100355967 85.92930400853791 77.71304724469088 68.51873253084734 58.8962224592144 49.35467517129952 40.32105557103628 32.114282678584836 24.93602911139331 18.876397076149203 13.930722789955743 10.022843141758978 7.0302530066390325 4.807438239413295 3.2049348832234035 2.082991243443296 1.3198312773974499 0.815290018919965 0.49098539394672114 0.2882622403197444 0.16499458076251286 0.09206919379194056 0.050086621493984476 0.026563902260252237 0.013734876123159271 0.006923414888563978 0.0034023477964327596 0.0016300457448323398 7.613487101128968E-4 3.466811095359836E-4 1.5390030377109235E-4 6.660571794558757E-5 2.8102586192629786E-5 1.1559626467861237E-5 4.635579681714497E-6 1.8122872631142815E-6 6.90737069051521E-7
0.18734005942224272 0.3624641108965754 0.6737946999085469 1.2034232284723767 2.065082518171257 3.404745473459935 5.393368730035602 8.208499862389877 12.003162851145674 16.863814726859555 22.763768838381278 29.600629368728608 37.481218378948974 46.26890185857605 55.683615007010964 65.33236651539283 74.72950320980716 83.33329192653876 90.59572792579115 96.01954356802042 99.21430471568694 99.94284014643947 98.15034224662747 93.97118151617454 87.71225855618047 79.81575726687346 70.807574914044 61.239768490742975 51.635703414301624 42.44527900814817 34.01507441782632 26.57517884161918 20.241547125479244 15.030518057518844 10.880952968349975 7.679318037999814 5.283736034872806 3.5442333630500693 2.3177481522916517 1.4776545496626805 0.9184220982022715 0.5565119211604316 0.3287527214731449 0.1893332889325793 0.10630344506099597 0.058187598980792184 0.031051048714187193 0.016154177320495528 0.00819324905450033 0.004051260830128896 0.0019529314133162044 9.177967490305369E-4 4.205026882205582E-4 1.8782516356396665E-4 8.179024564953332E-5 3.472257999098884E-5 1.4370940764255901E-5 5.798573268744948E-6 2.280971382964173E-6 8.747445832784716E-7 3.2704342680292914E-7
0.2242867719485806 0.43394832707388964 0.8066787139099616 1.4407591843112353 2.4723526470339383 4.07622039783662 6.457034689316848 9.827358560436156 14.370394977770298 20.189651799465537 27.253179303401264 35.34546819587803 44.06835485770315 53.36306521932421 62.996647112652205 72.5031442059833 81.35026720631757 88.98644650152899 94.89678139196303 98.66016529148781 99.99883314566428 98.81224436337315 95.18956292764575 89.39858387807796 81.85301551847411 73.0636670800044 63.581531617110464 53.94152778326182 44.61472679070807 35.97459973375482 28.279806978289955 21.673030837717434 16.192935822629863 11.794900403152631 8.375788438241305 5.798556027485059 3.913602873287218 2.575113574891685 1.6518810079153927 1.0330560118680976 0.6298421435928524 0.37437108771788036 0.21693799585474424 0.1225551832784445 0.06749793424000017 0.036241988396302376 0.018971264981186793 0.009681514514089096 0.0048167382797998735 0.0023362834658664055 0.001104741730197149 5.092824619134449E-4 2.2888610030627045E-4 1.0028658819789697E-4 4.283798467312251E-5 1.7839305514975318E-5 7.242518164165312E-6 2.8665794328934556E-6 1.1061170984447648E-6 4.1610311651443413E-7 1.5260317486091047E-7
0.25799119720271807 0.4991593906910219 0.9279013887064737 1.6572675401761259 2.843882471418451 4.688769521998851 7.4273578214333895 11.304153064044986 16.529888822158657 23.22362747297589 31.348618088260526 40.65696597405991 50.66169923655897 60.653065971263345 70.23812860992841 79.29590770247722 87.27530103087709 93.6471734772631 97.96269622274257 99.90552889944317 99.33014160237917 96.2798319453446 90.98134025633979 83.8169926834985 75.27912395841172 65.91432000459162 56.26621915263919 46.82506925804292 37.99022459389976 30.04886215150014 23.171115359405604 17.419215220885707 12.766532889213373 9.12179041245853 6.354040053092666 4.315017331858986 2.856787115652114 1.8438939959659764 1.1602638454115812 0.7117710282143853 0.4256832790413518 0.24819647758772886 0.14108062460209092 0.07818111707400208 0.04223758773190582 0.022246366098060636 0.011423042448762397 0.005718303989551135 0.002790714604478871 0.0013277806915902319 6.158855437600292E-4 2.785071886715278E-4 1.2278223828629675E-4 5.2771254754381666E-5 2.2111694871640793E-5 9.0325293724856E-6 3.5971576351909583E-6 1.39660082764764E-6 5.286251944011486E-7 1.950680570816356E-7 7.017577159256376E-8
0.28512436826796334 0.5516564420760778 1.0254896296404015 1.831563888873417 3.1429762018367717 5.1818917172725865 8.208499862389877 12.493021219858248 18.26835240527347 25.66607769535559 34.64558103300575 44.932896411722155 55.989836656540206 67.03200460356393 77.10515858035663 85.46930883575806 92.27609557785914 97.12498530617177 99.66334508723631 99.70172926093642 97.23724819401724 92.45392780915026 85.69999778493947 77.4460001397758 68.23071341189416 58.603502047491276 49.071571287469965 40.05890714716729 31.880928944677926 24.735778044916863 18.71039348540812 13.797582649939988 9.919409631030431 6.952346099028388 4.7505039131895375 3.164540907932862 2.0551545449286572 1.3011908334927516 0.8031566177248416 0.4833060446174078 0.2835351779905649 0.16216398538969107 0.09042002168391415 0.04915158670169037 0.026047929947193786 0.013457724268582527 0.0067784871062534155 0.003328562072890725 0.0015934677711867094 7.436912048842867E-4 3.383800454920983E-4 1.5009961600251655E-4 6.491082898349849E-5 2.7366387216774993E-5 1.124813492973881E-5 4.507194553082208E-6 1.7607383756732952E-6 6.70573045778112E-7 2.489774949573026E-7 9.012324717742299E-8 3.180360177875448E-8
0.30275547453758134 0.5857689713335614 1.0889023668554452 1.9448214745385404 3.337326996032607 5.502322005640725 8.716085146198127 13.265546508012175 19.398004229089185 27.253179303401264 36.78794411714422 47.71139155210344 59.452054797019436 71.17703227626097 81.87307530779819 90.48374180359595 96.15072161664582 99.27336463889777 99.9253487647241 98.0576185381068 93.81013223756437 87.49452794757808 79.55633617703108 70.52309990259361 60.94677797530187 51.349101168286616 42.17719354215513 33.77421384126526 26.36668657548832 20.06728424356206 14.889646445289518 10.770674628549909 7.595636365348443 5.222135800359914 3.5002163997694016 2.287201182660298 1.457057115808822 0.9049227844371016 0.5479099758966105 0.32342205337825175 0.1861198912296517 0.10441879754404387 0.05711199395852036 0.03045360398987424 0.015831162495795775 0.008023237625739943 0.003964142346542365 0.0019094643948519823 8.966782302268347E-4 4.1051064655678245E-4 1.832208787209651E-4 7.972384498337809E-5 3.381927148530763E-5 1.3986305098416198E-5 5.639031039274075E-6 2.2165049735994194E-6 8.493675657623177E-7 3.1731117936235843E-7 1.1556805688502385E-7 4.10348629235958E-8 1.4204661877577518E-8
0.308871540823677 0.5976022895005945 1.110899653824231 1.9841094744370291 3.404745473459935 5.613476283413374 8.892161745938635 13.53352832366127 19.789869908361467 27.803730045319412 37.531109885139955 48.67522559599717 60.653065971263345 72.6149037073691 83.5270211411272 92.31163463866358 98.01986733067552 100.0 98.73732766811946 95.04416844714588 89.19331789699665 81.60220636085452 72.78371533040018 63.2891522040884 53.65214293729756 44.34121667124116 35.72653320989836 28.06318010820643 21.490455917843125 16.04416472863375 11.677539183229268 8.286064159986683 5.732023840026135 3.865720246414643 2.541649110553186 1.6291591154651528 1.0180618178253105 0.620222524282912 0.36836949311125844 0.21329590439195947 0.1204048868788984 0.06626259643469716 0.03555130295310843 0.018595391781843072 0.009482391478815171 0.004714038955353542 0.0022847105688628103 0.0010795231299597563 4.972736545008794E-4 2.2331694993040586E-4 9.777113614723443E-5 4.173134419958359E-5 1.736508140490309E-5 7.04456224537086E-6 2.7860822658639925E-6 1.0742283224797834E-6 4.0379598733013485E-7 1.4797560930265944E-7 5.286655520006386E-8 1.841342706503866E-8 6.252460790777791E-9
0.30275547453758134 0.5857689713335614 1.0889023668554452 1.9448214745385404 3.337326996032607 5.502322005640725 8.716085146198127 13.265546508012175 19.398004229089185 27.253179303401264 36.78794411714422 47.71139155210344 59.452054797019436 71.17703227626097 81.87307530779819 90.48374180359595 96.07894391523232 98.01986733067552 96.07894391523232 90.78938874106088 83.57576757752705 75.00468533518575 65.62346388531462 55.97481222883365 46.54669801118065 37.735303563018874 29.824251698728865 22.98021043896831 17.262400349848466 12.64186375214497 9.025759640797993 6.282307067816162 4.2630192522474175 2.820188683033992 1.8188704809640819 1.143636799792454 0.701030972525383 0.41893729897370047 0.24407516311982866 0.1386311691179665 0.07676458758275569 0.0414403766383769 0.02180967553060232 0.011190189798737584 0.005597427003889275 0.002729619815513441 0.0012977129050853816 6.014753345957304E-4 2.717814172524297E-4 1.1972488630310417E-4 5.141760519130287E-5 2.1527916230929294E-5 8.787288438110816E-6 3.4967976939623164E-6 1.356590806937227E-6 5.130857699606617E-7 1.8918809665521288E-7 6.800805957407143E-8 2.383360277807524E-8 8.142949620975301E-9 2.7122925842463353E-9
0.28512436826796334 0.5516564420760778 1.0254896296404015 1.831563888873417 3.1429762018367717 5.1818917172725865 8.208499862389877 12.493021219858248 18.26835240527347 25.66607769535559 34.64558103300575 44.932896411722155 55.989836656540206 67.03200460356393 77.10515858035663 85.21437889662113 90.48374180359595 92.31163463866358 90.48374180359595 85.21437889662113 77.17806955205097 67.94231938039061 58.31087565718005 48.78895270692875 39.797534313539266 31.64853224404915 24.536562491068207 18.54541696672133 13.66539605448166 9.816814431254862 6.8751420810619495 4.694134308902161 3.124583125457354 2.0276425306569172 1.2827837182108865 0.7911853253195593 0.4757357031148478 0.27887912395407977 0.15937823133620635 0.08879831773061551 0.0482328818354698 0.02554138371277311 0.013185857251432438 0.006636438218076544 0.0032563005248998304 0.001557674249380069 7.264262666430003E-4 3.3027003760032354E-4 1.463893728148386E-4 6.325759290655338E-5 2.664885241080447E-5 1.0944781576272385E-5 4.382262855693833E-6 1.710615828660564E-6 6.509824591530784E-7 2.4151762231304915E-7 8.7355670218869E-8 3.080321969703385E-8 1.05892173929023E-8 3.5489048281303988E-9 1.1595449243305082E-9
0.25799119720271807 0.4991593906910219 0.9279013887064737 1.6572675401761259 2.843882471418451 4.688769521998851 7.4273578214333895 11.304153064044986 16.529888822158657 23.22362747297589 31.348618088260526 40.65696597405991 50.66169923655897 60.653065971263345 69.76763260710311 77.10515858035663 81.87307530779819 83.5270211411272 81.87307530779819 77.10515858035663 69.76763260710311 60.65377371245171 51.062898018322535 41.909823240512374 33.534276191266514 26.15921951888621 19.8940573426224 14.749750912026235 10.661265151298222 7.512691246057244 5.161133281902394 3.4566654272661648 2.2570041367315126 1.4367132659710058 0.8916010809319131 0.5394284010733086 0.31817039583758894 0.18295676212215442 0.10256516921778433 0.05605496344675731 0.029866957515901432 0.015514244529841112 0.007856570612798512 0.0038788067408639065 0.0018669212664401645 8.76025204665964E-4 4.007466847125587E-4 1.7872529081534765E-4 7.770783766860074E-5 3.2938693859069256E-5 1.3611646475821039E-5 5.483750485533614E-6 2.153810294469941E-6 8.247075085616035E-7 3.0786136208089167E-7 1.1204001597178128E-7 3.9751532414388285E-8 1.374982992125947E-8 4.636641465109218E-9 1.5243069893745215E-9 4.885444735833159E-10
0.2242867719485806 0.43394832707388964 0.8066787139099616 1.4407591843112353 2.4723526470339383 4.07622039783662 6.457034689316848 9.827358560436156 14.370394977770298 20.189651799465537 27.253179303401264 35.34546819587803 44.04316545059993 52.729242404304856 60.653065971263345 67.03200460356393 71.17703227626097 72.6149037073691 71.17703227626097 67.03200460356393 60.653065971263345 52.729242404304856 44.04316545059993 35.479349254931186 27.847562734769443 21.308921723255224 15.89638947333423 11.561075920401894 8.19710973853441 5.666122804673424 3.818334349399483 2.5085609846194665 1.606712269708409 1.0032618419792414 0.6107355729949515 0.36245565208953967 0.2097100645428045 0.11828955800059074 0.06504834954456022 0.034872966471514194 0.018226540307764303 0.009287147136668537 0.0046134216526267985 0.002234223989995945 0.0010548555921062954 4.855366818348724E-4 2.1787822080513854E-4 9.531655381670416E-5 4.065234302160285E-5 1.6903069168274106E-5 6.851857045835458E-6 2.707782367984173E-6 1.0432345367242648E-6 3.918437228539386E-7 1.434850222766068E-7 5.1222760840401E-8 1.7827158817993484E-8 6.048727533730781E-9 2.00082289483181E-9 6.452321697101233E-10 2.028551854070694E-10
0.18734005942224272 0.3624641108965754 0.6737946999085469 1.2034232284723767 2.065082518171257 3.404745473459935 5.393368730035602 8.208499862389877 12.003162851145674 16.863814726859555 22.763768838381278 29.523016692401427 36.78794411714422 44.04316545059993 50.66169923655897 55.989836656540206 59.452054797019436 60.653065971263345 59.452054797019436 55.989836656540206 50.66169923655897 44.04316545059993 36.78794411714422 29.523016692401427 22.790346498923043 17.106597965010305 12.518119906145554 8.930531428675398 6.211238946594139 4.211549488035501 2.7839941431885498 1.7941446896426936 1.1272217198651364 0.6904368626221002 0.41228860347616764 0.24001668188906417 0.1362210622590824 0.07537196457740723 0.04065726362435581 0.021381058108734658 0.010961827904637915 0.005478977323819744 0.002669800217394749 0.0012682964091093052 5.873885807575178E-4 2.652118795531809E-4 1.1674093979203821E-4 5.0097509304656864E-5 2.0959061003644553E-5 8.548506505117538E-6 3.399158446135675E-6 1.3176962473056647E-6 4.979915193383498E-7 1.8348109460965096E-7 6.590576956163988E-8 2.3079069040236583E-8 7.879086616934123E-9 2.622383483814239E-9 8.509014521165881E-10 2.6916901565489587E-10 8.301061004034779E-11
0.1503439192977573 0.29088426258125877 0.5407329126440966 0.9657697627537771 1.6572675401761259 2.7323722447292553 4.32827979019659 6.587475442640296 9.6327638230493 13.53352832366127 18.26835240527347 23.692775868212184 29.523016692401427 35.34546819587803 40.65696597405991 44.932896411722155 47.71139155210344 48.67522559599717 47.71139155210344 44.932896411722155 40.65696597405991 35.34546819587803 29.523016692401427 23.692775868212184 18.26835240527347 13.534160008336352 9.715053635642764 6.7986367307359465 4.638325340925456 3.0850578813221436 2.0004521296318405 1.2646074838560004 0.7793742800063332 0.46827301254760967 0.2742931276842258 0.15663667719512478 0.08720366429683153 0.04733024414730559 0.025044103663487836 0.012919180870676016 0.00649721445489723 0.003185533399429736 0.0015226492103989062 7.095455783372488E-4 3.2234688077735545E-4 1.4276750958142542E-4 6.164502502352294E-5 2.594952545937722E-5 1.0649360894781728E-5 4.260694616598841E-6 1.6618813248779068E-6 6.319494574125758E-7 2.3427579523058698E-7 8.467110622178836E-8 2.983360838532555E-8 1.0247998969190508E-8 3.43190374917422E-9 1.1204535655006383E-9 3.5662793955597706E-10 1.1066227737663919E-10 3.347700370319446E-11
0.11592291739045918 0.2242867719485806 0.41693296979041133 0.744658307092434 1.2778387649535765 2.1067999523041445 3.337326996032607 5.079283386489853 7.4273578214333895 10.435048475476501 14.0858420921045 18.26835240527347 22.763768838381278 27.253179303401264 31.348618088260526 34.64558103300575 36.78794411714422 37.531109885139955 36.78794411714422 34.64558103300575 31.348618088260526 27.253179303401264 22.763768838381278 18.26835240527347 14.0858420921045 10.435048475476501 7.4273578214333895 5.100724327859747 3.4135766675607067 2.2271537947059126 1.4166204024344502 0.878454990219455 0.5310657261760332 0.31299670902009913 0.1798431936705203 0.10074209518190712 0.055016212547084595 0.02929092839629205 0.01520331601569854 0.007693186240205075 0.003795219573375039 0.0018252834072172265 8.55827903583205E-4 3.9120582813073867E-4 1.7433594006377174E-4 7.57410422944997E-5 3.208029581630786E-5 1.3246714888651728E-5 5.33262140261241E-6 2.0928401163387106E-6 8.007447301288847E-7 2.986859984222082E-7 1.0861714360671156E-7 3.850743831046169E-8 1.330925103743029E-8 4.484616834098446E-9 1.4731935426283666E-9 4.717989912443485E-10 1.4730481638138515E-10 4.483731768978314E-11 1.3305311245104415E-11
0.08587780939743375 0.1661557273173933 0.308871540823677 0.5516564420760778 0.9466462401710334 1.5607557919982848 2.4723526470339383 3.7628256807176226 5.502322005640725 7.730474044329972 10.435048475476501 13.53352832366127 16.863814726859555 20.189651799465537 23.22362747297589 25.66607769535559 27.253179303401264 27.803730045319412 27.253179303401264 25.66607769535559 23.22362747297589 20.189651799465537 16.863814726859555 13.53352832366127 10.435048475476501 7.730474044329972 5.502322005640725 3.7628256807176226 2.4758458320777557 1.5845377214668999 0.9886539466531171 0.6013796998395461 0.3566284296542049 0.20617969658742033 0.11620868018127287 0.06385486323777671 0.034206774685771414 0.017864588323539345 0.009095710643577625 0.0045148465786540625 0.0021848020546319925 0.0010307276628156211 4.740656692422901E-4 2.125669873671212E-4 9.292142617518497E-5 3.9600316210634995E-5 1.6452965175227492E-5 6.66426780252303E-6 2.6316215905343436E-6 1.0131113445277061E-6 3.802363687780659E-7 1.39127463334861E-7 4.9628919216781114E-8 1.725915408030255E-8 5.851496262051097E-9 1.934091853413479E-9 6.232323628146252E-10 1.9578780435879885E-10 5.996309111777289E-11 1.7903796264240483E-11 5.21157484558E-12
0.06112527611295737 0.11826471566155732 0.2198455963042534 0.3926526838305625 0.6737946999085469 1.110899653824231 1.7597472415623396 2.6782676492638178 3.9163895098987074 5.502322005640725 7.4273578214333895 9.6327638230493 12.003162851145674 14.370394977770298 16.529888822158657 18.26835240527347 19.398004229089185 19.789869908361467 19.398004229089185 18.26835240527347 16.529888822158657 14.370394977770298 12.003162851145674 9.6327638230493 7.4273578214333895 5.502322005640725 3.9163895098987074 2.6782676492638178 1.7597472415623396 1.1110163238579565 0.6799869836769868 0.40573595646344207 0.2360201769547921 0.13384973145973414 0.0740028787685493 0.03988801847917889 0.02096037498260669 0.01073787567191024 0.005362909054045996 0.0026112306257453544 0.0012395177976597608 5.736183565978056E-4 2.5879510199092366E-4 1.1382870677890693E-4 4.881016646024987E-5 2.0404761052326885E-5 8.316019052888099E-6 3.3041684167966784E-6 1.279886956915233E-6 4.833300403009963E-7 1.779420958750052E-7 6.386697581177455E-8 2.234790108949168E-8 7.623595877250139E-9 2.535395587615273E-9 8.220426138717435E-10 2.5983979834860374E-10 8.007182871000572E-11 2.405562037824781E-11 7.045569666580767E-12 2.011770350643772E-12
0.04180121746110127 0.08087667511241124 0.1503439192977573 0.26852001769538214 0.4607821929992749 0.7597014027577577 1.2034232284723767 1.831563888873417 2.6782676492638178 3.7628256807176226 5.079283386489853 6.587475442640296 8.208499862389877 9.827358560436156 11.304153064044986 12.493021219858248 13.265546508012175 13.53352832366127 13.265546508012175 12.493021219858248 11.304153064044986 9.827358560436156 8.208499862389877 6.587475442640296 5.079283386489853 3.7628256807176226 2.6782676492638178 1.831563888873417 1.2034232284723767 0.7597014027577577 0.4607821929992749 0.26977624941037365 0.15393868951750142 0.08563564936569365 0.0464434146889288 0.0245559323746475 0.012657602469638995 0.006360762979256304 0.0031162314862254363 0.0014883769909210993 6.930409895029224E-4 3.1460645784699257E-4 1.3923200662268E-4 6.0072162922890494E-5 2.5267960758706642E-5 1.0361672369557837E-5 4.142402125550619E-6 1.6144975619653602E-6 6.134586136104155E-7 2.272458086217596E-7 8.206712745356191E-8 2.8893843797031243E-8 9.917544242860405E-9 3.3186825379176366E-9 1.0826548144154857E-9 3.4433173465628284E-10 1.0676448932310325E-10 3.227300025334169E-11 9.510746220638648E-12 2.732452260570957E-12 7.653380584937736E-13
0.027465356997214266 0.053139762179825314 0.09878299405312299 0.17643022368343347 0.30275547453758134 0.4991593906910219 0.7907054051593443 1.2034232284723767 1.7597472415623396 2.4723526470339383 3.337326996032607 4.32827979019659 5.393368730035602 6.457034689316848 7.4273578214333895 8.208499862389877 8.716085146198127 8.892161745938635 8.716085146198127 8.208499862389877 7.4273578214333895 6.457034689316848 5.393368730035602 4.32827979019659 3.337326996032607 2.4723526470339383 1.7597472415623396 1.2034232284723767 0.7907054051593443 0.4991593906910219 0.30275547453758134 0.17643022368343347 0.09894911667415901 0.05399545055453672 0.028725338485688052 0.014898271282676666 0.007533023789027938 0.0037133470250394706 0.00178453254873557 8.360767517895225E-4 3.818832051964187E-4 1.7005041971879782E-4 7.382230393682399E-5 3.124353888925154E-5 1.2891266357152218E-5 5.185536334891531E-6 2.0335484273760328E-6 7.774600724547866E-7 2.8977733056043516E-7 1.052963841623052E-7 3.730140979759562E-8 1.2882488756139772E-8 4.337475509420163E-9 1.423760817869785E-9 4.556168486251918E-10 1.421429264293156E-10 4.3232810241810034E-11 1.281930317360458E-11 3.705766988419003E-12 1.044370354659093E-12 2.8694172211989324E-13
0.017338430690350532 0.033546262790251205 0.06236008859994447 0.11137751478448037 0.19112457966326402 0.3151111598444445 0.4991593906910219 0.7597014027577577 1.110899653824231 1.5607557919982848 2.1067999523041445 2.7323722447292553 3.404745473459935 4.07622039783662 4.688769521998851 5.1818917172725865 5.502322005640725 5.613476283413374 5.502322005640725 5.1818917172725865 4.688769521998851 4.07622039783662 3.404745473459935 2.7323722447292553 2.1067999523041445 1.5607557919982848 1.110899653824231 0.7597014027577577 0.4991593906910219 0.3151111598444445 0.19112457966326402 0.11137751478448037 0.06236008859994447 0.03355252638782251 0.017509415541529634 0.008908012351131053 0.004418274648821838 0.002136423493629245 0.0010071281127752188 4.6285486237461547E-4 2.0738038651908937E-4 9.058436962238389E-5 3.857461417395096E-5 1.601447305506723E-5 6.481663087123315E-6 2.5575432720072293E-6 9.838349933405782E-7 3.689642417627804E-7 1.3489909278570984E-7 4.808354923896757E-8 1.6708857032983117E-8 5.66056402052784E-9 1.8695427817763845E-9 6.019686119011263E-10 1.889622376995585E-10 5.782810187731558E-11 1.725303841691729E-11 5.018281032582485E-12 1.423007228372265E-12 3.933887817997718E-13 1.0602287424680469E-13
0.010516289805000117 0.02034683690106439 0.03782330567826259 0.06755387751938452 0.11592291739045918 0.19112457966326402 0.30275547453758134 0.4607821929992749 0.6737946999085469 0.9466462401710334 1.2778387649535765 1.6572675401761259 2.065082518171257 2.4723526470339383 2.843882471418451 3.1429762018367717 3.337326996032607 3.404745473459935 3.337326996032607 3.1429762018367717 2.843882471418451 2.4723526470339383 2.065082518171257 1.6572675401761259 1.2778387649535765 0.9466462401710334 0.6737946999085469 0.4607821929992749 0.30275547453758134 0.19112457966326402 0.11592291739045918 0.06755387751938452 0.03782330567826259 0.02034683690106439 0.010516289805000117 0.005249177106048228 0.0025538863218365643 0.0012113639246218591 5.601578768481605E-4 2.525276844207903E-4 1.1098653252035045E-4 4.755479432487236E-5 1.9864656965837378E-5 8.089665598594483E-6 3.211757944715777E-6 1.2431335350044075E-6 4.690892657591215E-7 1.7256628332633218E-7 6.188980775537273E-8 2.1639392260256817E-8 7.376217650595221E-9 2.4512359882031483E-9 7.941440072773875E-10 2.508280717496472E-10 7.723528504418964E-11 2.3185587530785095E-11 6.785520940120093E-12 1.9360252727459065E-12 5.385196900105666E-13 1.4603430551611916E-13 3.860743330529401E-14
0.006128349505322217 0.011857083645433888 0.022041465283014688 0.03936690406550784 0.06755387751938452 0.11137751478448037 0.17643022368343347 0.26852001769538214 0.3926526838305625 0.5516564420760778 0.744658307092434 0.9657697627537771 1.2034232284723767 1.4407591843112353 1.6572675401761259 1.831563888873417 1.9448214745385404 1.9841094744370291 1.9448214745385404 1.831563888873417 1.6572675401761259 1.4407591843112353 1.2034232284723767 0.9657697627537771 0.744658307092434 0.5516564420760778 0.3926526838305625 0.26852001769538214 0.17643022368343347 0.11137751478448037 0.06755387751938452 0.03936690406550784 0.022041465283014688 0.011857083645433888 0.006128349505322217 0.003043248300840364 0.001454842227888011 6.769045131444574E-4 3.0704473781096155E-4 1.3578088828019496E-4 5.8538065993586065E-5 2.4603723176514445E-5 1.0081520365449507E-5 4.027299880311216E-6 1.568428207491158E-6 5.954949146165676E-7 2.204216289175707E-7 7.954137526162601E-8 2.7983028926077267E-8 9.597521305025998E-9 3.209121690850286E-9 1.046106799121411E-9 3.324517330548961E-10 1.0300158681673417E-10 3.111157282969641E-11 9.16141922168967E-12 2.6300638007010016E-12 7.360927642428567E-13 2.0084524354867808E-13 5.342607768708982E-14 1.3855039528263913E-14
0.003431252877771799 0.006638761765307788 0.01234098040866794 0.022041465283014688 0.03782330567826259 0.06236008859994447 0.09878299405312299 0.1503439192977573 0.2198455963042534 0.308871540823677 0.41693296979041133 0.5407329126440966 0.6737946999085469 0.8066787139099616 0.9279013887064737 1.0254896296404015 1.0889023668554452 1.110899653824231 1.0889023668554452 1.0254896296404015 0.9279013887064737 0.8066787139099616 0.6737946999085469 0.5407329126440966 0.41693296979041133 0.308871540823677 0.2198455963042534 0.1503439192977573 0.09878299405312299 0.06236008859994447 0.03782330567826259 0.022041465283014688 0.01234098040866794 0.006638761765307788 0.003431252877771799 0.0017039097526934611 8.129590538020515E-4 3.727740452354587E-4 1.6586637498827042E-4 7.195049359384505E-5 3.0427897153620324E-5 1.2545062790485138E-5 5.042390510167481E-6 1.975890402931475E-6 7.548348876183626E-7 2.811278135751937E-7 1.0207476835666984E-7 3.6132310094224125E-8 1.246911964615044E-8 4.195064023649231E-9 1.375954687306066E-9 4.399794661765072E-10 1.3715871969561946E-10 4.168474741964441E-11 1.235075946459781E-11 3.5675731841894682E-12 1.0046501551655293E-12 2.7581606493846234E-13 7.382220248619001E-14 1.9262700669913228E-14 4.9001580892738495E-15
0.0018458233995780567 0.0035712849641635165 0.006638761765307788 0.011857083645433888 0.02034683690106439 0.033546262790251205 0.053139762179825314 0.08087667511241124 0.11826471566155732 0.1661557273173933 0.2242867719485806 0.29088426258125877 0.3624641108965754 0.43394832707388964 0.4991593906910219 0.5516564420760778 0.5857689713335614 0.5976022895005945 0.5857689713335614 0.5516564420760778 0.4991593906910219 0.43394832707388964 0.3624641108965754 0.29088426258125877 0.2242867719485806 0.1661557273173933 0.11826471566155732 0.08087667511241124 0.053139762179825314 0.033546262790251205 0.02034683690106439 0.011857083645433888 0.006638761765307788 0.0035712849641635165 0.0018458233995780567 9.166087736247624E-4 4.373268009850429E-4 2.0047323447642732E-4 8.8294758344622E-5 3.7574602317622566E-5 1.558730353025696E-5 6.3039147268545895E-6 2.4854922014923787E-6 9.553823583013182E-7 3.580179223001643E-7 1.3079617868300744E-7 4.658521257819641E-8 1.617572835273929E-8 5.475734040209799E-9 1.8071058205651167E-9 5.814167793780341E-10 1.8237036830374503E-10 5.576782756774453E-11 1.662554597777E-11 4.832043589575568E-12 1.3691420472020046E-12 3.782064320786968E-13 1.0185258378539897E-13 2.674101750930184E-14 6.844575900211182E-15 1.70796079238579E-15
9.540162873079269E-4 0.0018458233995780567 0.003431252877771799 0.006128349505322217 0.010516289805000117 0.017338430690350532 0.027465356997214266 0.04180121746110127 0.06112527611295737 0.08587780939743375 0.11592291739045918 0.1503439192977573 0.18734005942224272 0.2242867719485806 0.25799119720271807 0.28512436826796334 0.30275547453758134 0.308871540823677 0.30275547453758134 0.28512436826796334 0.25799119720271807 0.2242867719485806 0.18734005942224272 0.1503439192977573 0.11592291739045918 0.08587780939743375 0.06112527611295737 0.04180121746110127 0.027465356997214266 0.017338430690350532 0.010516289805000117 0.006128349505322217 0.003431252877771799 0.0018458233995780567 9.540162873079269E-4 4.7375046785475824E-4 2.260329406981056E-4 1.0361485876900842E-4 4.563526367903997E-5 1.9311113205542063E-5 7.869289602162044E-6 3.121859138076199E-6 1.2074073518941692E-6 4.5525745500983304E-7 1.673489740622191E-7 5.997244846282297E-8 2.0952856721565384E-8 7.136700052636676E-9 2.369814666316279E-9 7.671743238872566E-10 2.4212323800949733E-10 7.449748732229802E-11 2.2346500128301792E-11 6.534917983582624E-12 1.8630885896577017E-12 5.178328629987967E-13 1.4031640474304726E-13 3.706722089758304E-14 9.546283805618137E-15 2.3968529736136623E-15 5.866933766012999E-16
4.7375046785475824E-4 9.166087736247624E-4 0.0017039097526934611 0.003043248300840364 0.005222234967574471 0.008610009871634024 0.013638892648201145 0.020757870271771763 0.030353913807886636 0.042645658068565434 0.05756561714872758 0.07465858083766795 0.09303032032049485 0.11137751478448037 0.1281146370384212 0.14158857103468014 0.1503439192977573 0.15338106793244638 0.1503439192977573 0.14158857103468014 0.1281146370384212 0.11137751478448037 0.09303032032049485 0.07465858083766795 0.05756561714872758 0.042645658068565434 0.030353913807886636 0.020757870271771763 0.013638892648201145 0.008610009871634024 0.005222234967574471 0.003043248300840364 0.0017039097526934611 9.166087736247624E-4 4.7375046785475824E-4 2.3525752000097726E-4 1.122446365234345E-4 5.145361611911217E-5 2.266180127765712E-5 9.589615017724412E-6 3.898846514799559E-6 1.523637874640191E-6 5.780437503898142E-7 2.137973894761321E-7 7.709155816576034E-8 2.710029303754801E-8 9.28760823465516E-9 3.1031053962902995E-9 1.0107689746094586E-9 3.2097411998575303E-10 9.936898836580057E-11 2.999124245672136E-11 8.824716957094727E-12 2.5314528888155073E-12 7.079484769350226E-13 1.9301728022766864E-13 5.1304264914171437E-14 1.3294545195706118E-14 3.3585841784837173E-15 8.271832440133064E-16 1.9861404519831292E-16
